"X","Y","Z"
-84.84632874,-121.50705719,0.05078125
-84.83834076,-121.50369263,0.0516357399999379
-84.84195709,-121.50572968,0.0520019499999762
-84.83547974,-121.50196075,0.0520019499999762
-84.8335495,-121.50733185,0.0520019499999762
-84.8481369,-121.50370789,0.0521240200000648
-84.84349823,-121.50536346,0.0524902300001031
-84.83621216,-121.50579834,0.0528564399999141
-84.84970093,-121.5033493,0.0529785100000026
-84.83821106,-121.50595856,0.0531005800000912
-84.83521271,-121.51249695,0.0538330100000621
-84.83737946,-121.50740814,0.0543212899999617
-84.83917236,-121.50705719,0.0545654300001388
-84.84958649,-121.50562286,0.0550537100000383
-84.84535217,-121.50228882,0.0556640600000264
-84.84410095,-121.51197815,0.055786130000115
-84.8440094,-121.50344086,0.0559081999999762
-84.83586884,-121.50505829,0.056152339999926
-84.84149933,-121.51053619,0.0573730400001295
-84.84449768,-121.50099945,0.0574951099999907
-84.82955933,-121.50961304,0.0582275399999617
-84.84191132,-121.50283051,0.0593261700000767
-84.84284973,-121.51017761,0.0595703100000264
-84.84857941,-121.50435638,0.0598144499999762
-84.82807159,-121.51027679,0.0605468700000529
-84.84149933,-121.50231934,0.0610351499999524
-84.84529114,-121.50212097,0.061157220000041
-84.83998108,-121.50596619,0.0615234399999736
-84.82788086,-121.51004028,0.0621337899999617
-84.84333801,-121.50498962,0.0625
-84.841362,-121.50785065,0.0625
-84.83769226,-121.51307678,0.0625
-84.83854675,-121.50614929,0.0645751899999141
-84.8427887,-121.50649261,0.0646972600000026
-84.84764862,-121.50235748,0.0651855400001295
-84.84345245,-121.50479126,0.0654296899999736
-84.83821869,-121.51091003,0.0657959000000119
-84.83705902,-121.50656128,0.0661621100000502
-84.83817291,-121.50538635,0.06640625
-84.84790802,-121.5029068,0.0668945300001269
-84.83933258,-121.50701141,0.067504880000115
-84.8368988,-121.506073,0.0676269499999762
-84.83690643,-121.50907898,0.0676269499999762
-84.84233856,-121.50073242,0.0677490200000648
-84.83226013,-121.51097107,0.0679931600000145
-84.83973694,-121.50530243,0.0683593700000529
-84.84375763,-121.50537109,0.0687255800000912
-84.84439087,-121.50066376,0.068969720000041
-84.84306335,-121.50180817,0.0694580100000621
-84.83482361,-121.51119995,0.0700683600000502
-84.84761047,-121.5082016,0.0705566399999498
-84.83746338,-121.50965881,0.0705566399999498
-84.83479309,-121.50871277,0.0709228499999881
-84.83885193,-121.50853729,0.0720214800001031
-84.83081055,-121.50865936,0.0720214800001031
-84.83419037,-121.51042938,0.0721435499999643
-84.84651947,-121.50363159,0.0723876899999141
-84.84697723,-121.50743103,0.0725097600000026
-84.84303284,-121.50988007,0.0726318300000912
-84.83509064,-121.50875092,0.0726318300000912
-84.84658813,-121.50341034,0.0740966800001388
-84.84658813,-121.50666809,0.0740966800001388
-84.8428421,-121.50964355,0.0740966800001388
-84.83312225,-121.50887299,0.07421875
-84.84116364,-121.50926971,0.0754394499999762
-84.84684753,-121.50395203,0.075683589999926
-84.84551239,-121.50511169,0.0759277300001031
-84.84087372,-121.50675201,0.0760497999999643
-84.83159637,-121.50652313,0.0760497999999643
-84.83184052,-121.51006317,0.0764160100000026
-84.84774017,-121.50253296,0.0766601499999524
-84.83809662,-121.51055908,0.0772705100000621
-84.84204102,-121.50836945,0.0773925799999233
-84.83679962,-121.51122284,0.0775146500000119
-84.84465027,-121.50080109,0.0777587899999617
-84.84757996,-121.50205231,0.0783691399999498
-84.83946228,-121.50968933,0.0784912100000383
-84.84378052,-121.50276184,0.0789794899999379
-84.84033966,-121.50826263,0.0789794899999379
-84.84264374,-121.51145935,0.0800781200000529
-84.84390259,-121.50505066,0.0804443300000912
-84.82591248,-121.5041275,0.0804443300000912
-84.84236908,-121.50868988,0.080688470000041
-84.82621002,-121.51019287,0.0811767600000621
-84.83957672,-121.50949097,0.0817871100000502
-84.82108307,-121.50553131,0.0819091800001388
-84.83184814,-121.51239777,0.0823974600000383
-84.83879852,-121.5164566,0.0823974600000383
-84.84400177,-121.50785065,0.0826415999999881
-84.83795929,-121.50485992,0.0826415999999881
-84.8408432,-121.50659943,0.0827636700000767
-84.84030151,-121.51032257,0.0830078100000264
-84.84116364,-121.50914001,0.0832519499999762
-84.82765198,-121.50882721,0.0836181600000145
-84.84529114,-121.50144958,0.0839843700000529
-84.84597778,-121.50552368,0.0841064399999141
-84.82965088,-121.50924683,0.084594720000041
-84.84732056,-121.50161743,0.0849609399999736
-84.84055328,-121.50811005,0.0852050799999233
-84.84805298,-121.50845337,0.0853271500000119
-84.82633972,-121.50700378,0.0854492200001005
-84.83773041,-121.51216125,0.0855712899999617
-84.84159851,-121.50769806,0.0856933600000502
-84.8303833,-121.51007843,0.0860595700000886
-84.84037781,-121.50788116,0.0872802700000648
-84.83927917,-121.50904846,0.0872802700000648
-84.83885956,-121.51126862,0.0872802700000648
-84.8361969,-121.51006317,0.087402339999926
-84.84101105,-121.50643158,0.0877685499999643
-84.84764099,-121.50193787,0.0881347600000026
-84.84588623,-121.50531769,0.0886230400001295
-84.84198761,-121.51027679,0.0886230400001295
-84.83821106,-121.51049042,0.0887451099999907
-84.83403015,-121.51267242,0.0888671899999736
-84.83045959,-121.51039124,0.0892334000000119
-84.84039307,-121.50540924,0.0895996100000502
-84.84771729,-121.50798798,0.08984375
-84.8457489,-121.50759125,0.08984375
-84.8345108,-121.51022339,0.0900878899999498
-84.84725952,-121.50119019,0.0902099600000383
-84.84506226,-121.50077057,0.0906982399999379
-84.84671021,-121.50868988,0.091308589999926
-84.8466568,-121.5031662,0.0919189399999141
-84.84623718,-121.50540161,0.0919189399999141
-84.83766174,-121.50624084,0.092407220000041
-84.82524872,-121.51103973,0.0928955100000621
-84.83863068,-121.51335144,0.0932617200001005
-84.82879639,-121.50756073,0.0933837899999617
-84.83242035,-121.51287079,0.0938720700000886
-84.83374023,-121.51222992,0.0943603499999881
-84.8368988,-121.51348114,0.0944824200000767
-84.84693909,-121.50073242,0.0947265600000264
-84.8225708,-121.50759125,0.094848630000115
-84.84455872,-121.50556183,0.0949706999999762
-84.84609985,-121.50543976,0.0955810499999643
-84.83599854,-121.50940704,0.0955810499999643
-84.83557129,-121.51490021,0.0955810499999643
-84.83135223,-121.51130676,0.0959472600000026
-84.83003235,-121.51220703,0.0959472600000026
-84.82303619,-121.50538635,0.096313470000041
-84.84789276,-121.50208282,0.0964355400001295
-84.83518219,-121.51413727,0.0972900399999617
-84.84242249,-121.50518036,0.0977783200000886
-84.84686279,-121.50328827,0.0986328100000264
-84.84004974,-121.50701904,0.098754880000115
-84.8376236,-121.50933838,0.099121089999926
-84.84889984,-121.50321198,0.0993652300001031
-84.83748627,-121.51435089,0.0994872999999643
-84.83843994,-121.502388,0.0999755800000912
-84.84647369,-121.50579071,0.10034179000013
-84.83834839,-121.51016998,0.10034179000013
-84.84555817,-121.50145721,0.100708010000062
-84.8366394,-121.51030731,0.102050780000127
-84.84100342,-121.50614929,0.102783199999976
-84.83892059,-121.51351166,0.103027339999926
-84.84767914,-121.50417328,0.103149410000015
-84.84001923,-121.50933838,0.103515620000053
-84.83718109,-121.51390076,0.10424804000013
-84.83177948,-121.50920868,0.104492189999974
-84.84224701,-121.51029205,0.1049804700001
-84.83296967,-121.51058197,0.105957030000127
-84.83970642,-121.51438141,0.106445310000026
-84.84027863,-121.50125885,0.109375
-84.8456192,-121.5013504,0.110229489999938
