"X","Y","Z"
-84.9924469,-121.2596283,0.250366210000038
-84.95877075,-121.34880066,0.251831060000086
-84.99582672,-121.26294708,0.251831060000086
-84.99803162,-121.34864807,0.254272460000038
-84.96016693,-121.3442688,0.255371100000048
-84.95700836,-121.34542084,0.256225590000213
-84.95870209,-121.34864044,0.256347660000074
-84.96224976,-121.34020233,0.259277350000048
-84.95021057,-121.34130859,0.259399420000136
-84.95572662,-121.33989716,0.262207030000127
-84.96911621,-121.34332275,0.262695320000148
-84.95426941,-121.33778381,0.264282230000163
-84.98127747,-121.25099182,0.266479500000059
-84.98576355,-121.2513504,0.267578130000174
-84.98269653,-121.25324249,0.267822270000124
-84.985672,-121.25353241,0.269653320000089
-84.99002838,-121.25627899,0.274047850000215
-84.9936676,-121.25990295,0.274169920000077
-84.99192047,-121.34085846,0.276367190000201
-84.99835205,-121.26123047,0.276489260000062
-84.99662018,-121.34575653,0.279785160000074
-84.95374298,-121.34876251,0.279907230000163
-84.95968628,-121.34990692,0.28125
-84.96547699,-121.3478775,0.282592780000186
-84.98760223,-121.25063324,0.283813480000163
-84.95075226,-121.34676361,0.2846679700001
-84.98819733,-121.34156799,0.286132820000148
-84.98964691,-121.25585175,0.286987310000086
-84.9985733,-121.25727844,0.290161140000009
-84.97493744,-121.34842682,0.293090820000089
-84.98748779,-121.34481812,0.293945320000148
-84.9631424,-121.3468399,0.294555670000136
-84.99501038,-121.34288788,0.295410160000074
-84.99265289,-121.25209808,0.297485350000215
-84.99629211,-121.25434113,0.301513670000077
-84.99131775,-121.34648132,0.301757820000148
-84.98561859,-121.2503891,0.304565430000139
-84.99082184,-121.25205994,0.3046875
-84.99178314,-121.2527771,0.306396490000225
-84.99710846,-121.25737762,0.308959960000038
-84.99974823,-121.25241852,0.310058600000048
-84.99830627,-121.25035858,0.310424810000086
-84.99450684,-121.25199127,0.310424810000086
-84.95536804,-121.34793091,0.314941410000074
-84.99147797,-121.25122833,0.315185550000024
-84.9525528,-121.34980774,0.315795900000012
-84.9562912,-121.34990692,0.316284180000139
-84.95657349,-121.34864807,0.317016600000215
-84.98719025,-121.25097656,0.318847660000074
-84.99286652,-121.25315094,0.319213870000112
-84.95600128,-121.34947968,0.321533210000098
-84.99581909,-121.25254059,0.325561530000186
-84.95664978,-121.34973907,0.329589850000048
-84.9988327,-121.34951782,0.340576170000077
