"X","Y","Z"
-84.95980072,-121.36042023,0.550048830000151
-84.96247101,-121.3552475,0.550170900000012
-84.96782684,-121.38456726,0.550415040000189
-84.96325684,-121.37438202,0.55053711000005
-84.96295166,-121.38292694,0.55053711000005
-84.96073914,-121.38552094,0.55053711000005
-84.96298218,-121.36543274,0.55053711000005
-84.98217773,-121.3793869,0.55078125
-84.95987701,-121.39022064,0.55078125
-84.95674896,-121.3551178,0.550903320000089
-84.95218658,-121.36340332,0.551025390000177
-84.96495056,-121.38334656,0.551513670000077
-84.97054291,-121.37256622,0.551635750000059
-84.98174286,-121.38838959,0.551635750000059
-84.96627045,-121.37291718,0.551635750000059
-84.96356964,-121.37220764,0.551757820000148
-84.97788239,-121.37716675,0.551879890000009
-84.95066833,-121.36383057,0.551879890000009
-84.96385193,-121.37525177,0.552124030000186
-84.95973206,-121.38947296,0.552246100000048
-84.96633911,-121.38523102,0.552368170000136
-84.96079254,-121.38555145,0.552368170000136
-84.95706177,-121.39151764,0.552368170000136
-84.96697235,-121.3763504,0.552490240000225
-84.96360779,-121.37243652,0.552490240000225
-84.96587372,-121.38169098,0.552734380000174
-84.95207977,-121.37226868,0.552856450000036
-84.96527863,-121.37436676,0.553100590000213
-84.9661026,-121.37268829,0.553344730000163
-84.97483063,-121.37238312,0.553466800000024
-84.98213196,-121.37928772,0.553466800000024
-84.9608078,-121.37374878,0.553466800000024
-84.96362305,-121.37223816,0.553466800000024
-84.9675293,-121.37413788,0.553588870000112
-84.95879364,-121.35951996,0.553710940000201
-84.96044922,-121.39054871,0.553710940000201
-84.95951843,-121.38646698,0.554077150000012
-84.95350647,-121.36032867,0.5541992200001
-84.9683609,-121.37613678,0.5541992200001
-84.97569275,-121.37779236,0.554321290000189
-84.98194122,-121.388237,0.554321290000189
-84.95066071,-121.38754272,0.554321290000189
-84.98312378,-121.37547302,0.5546875
-84.97971344,-121.37873077,0.5546875
-84.95931244,-121.38150787,0.554809570000089
-84.96151733,-121.3598175,0.555053710000038
-84.9646225,-121.38262939,0.555053710000038
-84.98287964,-121.38417816,0.555175780000127
-84.95411682,-121.35656738,0.555175780000127
-84.95361328,-121.38877869,0.555175780000127
-84.98290253,-121.39286041,0.555297850000215
-84.96330261,-121.38352966,0.555297850000215
-84.96820068,-121.38191223,0.555419920000077
-84.95735168,-121.38907623,0.555419920000077
-84.9613266,-121.38639069,0.555542000000059
-84.95937347,-121.38899231,0.555542000000059
-84.96884918,-121.37695313,0.556030280000186
-84.95005798,-121.38951874,0.556030280000186
-84.96209717,-121.39298248,0.556396490000225
-84.97608185,-121.376091,0.556518560000086
-84.96411896,-121.37013245,0.556640630000174
-84.96933746,-121.3837738,0.556640630000174
-84.98327637,-121.38249207,0.557128910000074
-84.98496246,-121.38443756,0.557250980000163
-84.95366669,-121.38881683,0.557250980000163
-84.96459961,-121.35658264,0.557495120000112
-84.95662689,-121.35532379,0.557617190000201
-84.96823883,-121.37593079,0.557739260000062
-84.96980286,-121.37529755,0.557983400000012
-84.95366669,-121.38607788,0.558471680000139
-84.98040771,-121.37612915,0.55859375
-84.95481873,-121.39069366,0.558715820000089
-84.96320343,-121.3830719,0.558837890000177
-84.96102905,-121.35816956,0.558959960000038
-84.95947266,-121.38905334,0.559082030000127
-84.95316315,-121.36141205,0.559326170000077
-84.96047974,-121.36312866,0.559448250000059
-84.95995331,-121.37599945,0.559570320000148
-84.95394135,-121.36042786,0.559570320000148
-84.98323059,-121.37499237,0.559692390000009
-84.96179199,-121.35742188,0.559692390000009
-84.9549408,-121.35269165,0.559814460000098
-84.96305084,-121.38858795,0.559936530000186
-84.95133972,-121.39394379,0.559936530000186
-84.95558167,-121.37584686,0.560180670000136
-84.9713974,-121.37496185,0.560180670000136
-84.98442841,-121.37830353,0.560302740000225
-84.95619965,-121.38134003,0.560424810000086
-84.9683075,-121.37296295,0.560546880000174
-84.95394135,-121.3866272,0.560546880000174
-84.96063232,-121.39092255,0.560791020000124
-84.9575119,-121.38916779,0.560791020000124
-84.95310211,-121.38781738,0.560791020000124
-84.96611023,-121.37555695,0.561035160000074
-84.96659088,-121.38237,0.561157230000163
-84.96897125,-121.38440704,0.561157230000163
-84.96520996,-121.37365723,0.561401370000112
-84.97415924,-121.37320709,0.561889650000012
-84.97940063,-121.37875366,0.5625
-84.95584869,-121.39208984,0.563110350000215
-84.97106934,-121.36945343,0.563476570000148
-84.95596313,-121.38153076,0.563476570000148
-84.96488953,-121.38252258,0.563476570000148
-84.95054626,-121.39267731,0.563476570000148
-84.96769714,-121.366539,0.563598640000009
-84.95661163,-121.35386658,0.563842780000186
-84.96842194,-121.37928772,0.563964850000048
-84.95166016,-121.39151764,0.563964850000048
-84.9776001,-121.3775177,0.564086920000136
-84.97576904,-121.37610626,0.564331060000086
-84.95094299,-121.38796234,0.564331060000086
-84.98248291,-121.3764801,0.564941410000074
-84.96164703,-121.38337708,0.565429690000201
-84.96772766,-121.37184906,0.565551760000062
-84.96099091,-121.38825989,0.565551760000062
-84.95233154,-121.39009094,0.565795900000012
-84.96346283,-121.38569641,0.566040040000189
-84.96047211,-121.37593842,0.566284180000139
-84.95858002,-121.3873291,0.56640625
-84.96582794,-121.37812042,0.566528320000089
-84.97029877,-121.38198853,0.566650390000177
-84.95918274,-121.37660217,0.566772460000038
-84.95410919,-121.36044312,0.567016600000215
-84.96112823,-121.38063049,0.567016600000215
-84.97530365,-121.37763214,0.567138670000077
-84.95172882,-121.37970734,0.567138670000077
-84.95065308,-121.39600372,0.567138670000077
-84.96038055,-121.38723755,0.567260750000059
-84.95285034,-121.39041138,0.567260750000059
-84.96933746,-121.37477112,0.567382820000148
-84.95852661,-121.35505676,0.567382820000148
-84.96826172,-121.36961365,0.567749030000186
-84.97138977,-121.37483978,0.567749030000186
-84.97619629,-121.38201904,0.567749030000186
-84.95819092,-121.38657379,0.567871100000048
-84.96283722,-121.38493347,0.567993170000136
-84.96098328,-121.37651062,0.567993170000136
-84.97273254,-121.37760925,0.568115240000225
-84.950737,-121.37502289,0.568115240000225
-84.9759903,-121.37489319,0.568237310000086
-84.96057129,-121.3787384,0.568237310000086
-84.96417999,-121.3764801,0.568237310000086
-84.96447754,-121.37599182,0.568359380000174
-84.95496368,-121.35666656,0.568359380000174
-84.96047974,-121.37272644,0.568481450000036
-84.95025635,-121.39198303,0.568481450000036
-84.9557724,-121.35468292,0.568603520000124
-84.97228241,-121.37180328,0.568847660000074
-84.97280121,-121.37970734,0.568847660000074
-84.97007751,-121.37225342,0.569091800000024
-84.9683609,-121.37886047,0.569213870000112
-84.96331024,-121.38574219,0.569213870000112
-84.95334625,-121.38796997,0.569213870000112
-84.96185303,-121.36830902,0.569580080000151
-84.97328186,-121.3753891,0.569702150000012
-84.95300293,-121.3586731,0.569702150000012
-84.98496246,-121.38368988,0.569946290000189
-84.95802307,-121.35417938,0.569946290000189
-84.9763031,-121.38137817,0.570556640000177
-84.97013855,-121.37139893,0.570800780000127
-84.96752167,-121.37757111,0.571044920000077
-84.9606781,-121.3848114,0.571044920000077
-84.95717621,-121.39105225,0.571044920000077
-84.96199036,-121.38089752,0.571167000000059
-84.9569397,-121.38777161,0.571167000000059
-84.95204926,-121.38939667,0.571289070000148
-84.95323944,-121.36251068,0.571533210000098
-84.96643829,-121.37570953,0.571655280000186
-84.97953796,-121.37734222,0.571655280000186
-84.97541809,-121.37716675,0.571655280000186
-84.95903015,-121.36958313,0.571777350000048
-84.95278168,-121.3690033,0.571777350000048
-84.96443939,-121.37557983,0.571899420000136
-84.97309875,-121.37584686,0.572021490000225
-84.96350861,-121.37886047,0.572021490000225
-84.97718811,-121.37831879,0.572143560000086
-84.95852661,-121.39041901,0.572265630000174
-84.96138,-121.36984253,0.572387700000036
-84.96269226,-121.37570953,0.572387700000036
-84.96795654,-121.37077332,0.572509770000124
-84.95388794,-121.3888092,0.572509770000124
-84.96096039,-121.38510132,0.572631840000213
-84.95941925,-121.38548279,0.572631840000213
-84.95696259,-121.35127258,0.572631840000213
-84.98439026,-121.38471985,0.572753910000074
-84.98442078,-121.37628174,0.572998050000024
-84.96894073,-121.37621307,0.572998050000024
-84.96324921,-121.37985229,0.573120120000112
-84.9781189,-121.37425232,0.573242190000201
-84.95340729,-121.35546875,0.573242190000201
-84.96401215,-121.37641144,0.573364260000062
-84.95789337,-121.38613129,0.573364260000062
-84.96869659,-121.37319183,0.573852540000189
-84.9642868,-121.38162231,0.574096680000139
-84.95883179,-121.35108948,0.57421875
-84.96962738,-121.37753296,0.57421875
-84.96739197,-121.37735748,0.57421875
-84.96347809,-121.38558197,0.57421875
-84.96788788,-121.38693237,0.574340820000089
-84.95063019,-121.38957977,0.574340820000089
-84.9691391,-121.37529755,0.574462890000177
-84.9679184,-121.37068939,0.574707030000127
-84.98014069,-121.38400269,0.574707030000127
-84.96060181,-121.36274719,0.574707030000127
-84.95729828,-121.36752319,0.574951170000077
-84.96591949,-121.38677979,0.574951170000077
-84.95597839,-121.39202118,0.575073250000059
-84.95845795,-121.37187195,0.575195320000148
-84.9783783,-121.38050842,0.575317390000009
-84.9580307,-121.36003876,0.575317390000009
-84.96071625,-121.37721252,0.575439460000098
-84.97026062,-121.37093353,0.575805670000136
-84.97975922,-121.37610626,0.575927740000225
-84.96373749,-121.38612366,0.575927740000225
-84.95967865,-121.36672974,0.576049810000086
-84.97207642,-121.37232971,0.576171880000174
-84.95996857,-121.38632965,0.576293950000036
-84.96141815,-121.35900116,0.576293950000036
-84.97715759,-121.37713623,0.576416020000124
-84.98068237,-121.38176727,0.576660160000074
-84.95755768,-121.38539886,0.576904300000024
-84.95427704,-121.38890839,0.577270510000062
-84.96443176,-121.37489319,0.577392580000151
-84.98744202,-121.38237762,0.577514650000012
-84.96246338,-121.38704681,0.577514650000012
-84.95761108,-121.39143372,0.577514650000012
-84.9806366,-121.37303925,0.577758790000189
-84.9818573,-121.3776474,0.577758790000189
-84.95025635,-121.38323975,0.577758790000189
-84.95185852,-121.39122772,0.577758790000189
-84.95915985,-121.38780212,0.578125
-84.95584106,-121.39179993,0.578125
-84.9594574,-121.37458038,0.578125
-84.96565247,-121.36682129,0.578247070000089
-84.96205139,-121.38301086,0.578369140000177
-84.95850372,-121.39000702,0.578613280000127
-84.95451355,-121.39295959,0.578613280000127
-84.96469116,-121.38472748,0.578735350000215
-84.96185303,-121.38902283,0.578735350000215
-84.95767212,-121.36624908,0.578735350000215
-84.96356964,-121.35829163,0.578857420000077
-84.95703888,-121.37805176,0.579223640000009
-84.9872818,-121.39154053,0.579345710000098
-84.960289,-121.38365173,0.579589850000048
-84.95654297,-121.38986969,0.579589850000048
-84.96095276,-121.37909698,0.579711920000136
-84.96395874,-121.37641907,0.579956060000086
-84.95793152,-121.36138153,0.580322270000124
-84.9556427,-121.36255646,0.580322270000124
-84.95501709,-121.3935318,0.580322270000124
-84.97657013,-121.37198639,0.580444340000213
-84.96427155,-121.38121796,0.580566410000074
-84.96192932,-121.37526703,0.580810550000024
-84.97176361,-121.37220764,0.580932620000112
-84.96652985,-121.38140106,0.580932620000112
-84.96005249,-121.36270905,0.580932620000112
-84.96140289,-121.37415314,0.580932620000112
-84.9797287,-121.3761673,0.581176760000062
-84.98252106,-121.38221741,0.581420900000012
-84.9605484,-121.38419342,0.581420900000012
-84.96459961,-121.37339783,0.58178711000005
-84.97846985,-121.37255859,0.58203125
-84.96453094,-121.35803986,0.58203125
-84.96366119,-121.36710358,0.58203125
-84.95397186,-121.39170837,0.582153320000089
-84.95661926,-121.38134003,0.583007820000148
-84.96060181,-121.38421631,0.583129890000009
-84.98120117,-121.37960815,0.583251960000098
-84.95751953,-121.38523865,0.583374030000186
-84.96173859,-121.38292694,0.583374030000186
-84.97541809,-121.37518311,0.583496100000048
-84.95545197,-121.35968781,0.583496100000048
-84.9664917,-121.3739624,0.583618170000136
-84.96112061,-121.38754272,0.583740240000225
-84.9631424,-121.36435699,0.583740240000225
-84.96247864,-121.3855896,0.583740240000225
-84.9651413,-121.37116241,0.583984380000174
-84.96437073,-121.38127136,0.583984380000174
-84.95823669,-121.39232635,0.583984380000174
-84.95757294,-121.36309052,0.584106450000036
-84.95379639,-121.38822174,0.584228520000124
-84.98248291,-121.3821106,0.584350590000213
-84.95867157,-121.3901062,0.584350590000213
-84.96569061,-121.35752106,0.584350590000213
-84.96911621,-121.37439728,0.584716800000024
-84.95269775,-121.38964844,0.584716800000024
-84.95142365,-121.39331055,0.584960940000201
-84.96070862,-121.35881042,0.585083010000062
-84.9677124,-121.37007141,0.585205080000151
-84.95864868,-121.38108826,0.585205080000151
-84.95835876,-121.37915802,0.5854492200001
-84.95690918,-121.38421631,0.5854492200001
-84.96376038,-121.37699127,0.5859375
-84.96486664,-121.38208771,0.586059570000089
-84.9622879,-121.37081909,0.586059570000089
-84.97393799,-121.37181091,0.586181640000177
-84.96008301,-121.38899231,0.586303710000038
-84.95694733,-121.39051056,0.586303710000038
-84.95205688,-121.38887024,0.586303710000038
-84.95146942,-121.38124084,0.586425780000127
-84.96278381,-121.37351227,0.586669920000077
-84.95626831,-121.37774658,0.586792000000059
-84.97096252,-121.37470245,0.586914070000148
-84.96499634,-121.37184143,0.587036140000009
-84.9546814,-121.35904694,0.587036140000009
-84.95014954,-121.39124298,0.587280280000186
-84.9671936,-121.37136078,0.587768560000086
-84.95417786,-121.39758301,0.587768560000086
-84.95146942,-121.39060211,0.587768560000086
-84.9630127,-121.3842392,0.588012700000036
-84.95948029,-121.3877182,0.588134770000124
-84.9523468,-121.38591003,0.588134770000124
-84.95786285,-121.38684082,0.588134770000124
-84.9834671,-121.37844086,0.588256840000213
-84.95729828,-121.3658371,0.588256840000213
-84.96182251,-121.37500763,0.588378910000074
-84.96331787,-121.36203766,0.588378910000074
-84.9561615,-121.39173126,0.588378910000074
-84.95690155,-121.35932922,0.588500980000163
-84.95760345,-121.38173676,0.588745120000112
-84.97702026,-121.37693787,0.588867190000201
-84.9675293,-121.37917328,0.588867190000201
-84.9822464,-121.37507629,0.589111330000151
-84.98480225,-121.38117981,0.5893554700001
-84.97892761,-121.37754059,0.589477540000189
-84.967453,-121.38259888,0.589477540000189
-84.9519577,-121.39141083,0.589477540000189
-84.96347809,-121.38529968,0.589721680000139
-84.96375275,-121.37606049,0.589721680000139
-84.96147156,-121.38539124,0.58984375
-84.96721649,-121.3793335,0.589965820000089
-84.96656036,-121.38453674,0.589965820000089
-84.96653748,-121.3752594,0.590087890000177
-84.95838928,-121.38641357,0.590087890000177
-84.96807861,-121.37695313,0.590209960000038
-84.98589325,-121.37786102,0.590332030000127
-84.96221924,-121.37330627,0.590332030000127
-84.96485138,-121.36026764,0.590576170000077
-84.96614075,-121.36763,0.590698250000059
-84.95693207,-121.37490845,0.590698250000059
-84.95445251,-121.38887024,0.590698250000059
-84.97531128,-121.37492371,0.590820320000148
-84.95732117,-121.3875885,0.590942390000009
-84.95475006,-121.35759735,0.590942390000009
-84.96196747,-121.38594818,0.591064460000098
-84.97351837,-121.37246704,0.591186530000186
-84.96897125,-121.37391663,0.591186530000186
-84.9693222,-121.38050079,0.591186530000186
-84.96721649,-121.3659668,0.591308600000048
-84.96694183,-121.37822723,0.591308600000048
-84.95657349,-121.36335754,0.591430670000136
-84.95420074,-121.38770294,0.591430670000136
-84.95735931,-121.38194275,0.591552740000225
-84.96656036,-121.37554169,0.591552740000225
-84.9594574,-121.37484741,0.591796880000174
-84.97850037,-121.37064362,0.591918950000036
-84.95118713,-121.36479187,0.591918950000036
-84.96640015,-121.37779236,0.592041020000124
-84.96244049,-121.38349915,0.592041020000124
-84.96954346,-121.38581085,0.592041020000124
-84.95739746,-121.35961914,0.592285160000074
-84.96952057,-121.37979126,0.592407230000163
-84.98551178,-121.3786087,0.592529300000024
-84.98368835,-121.37719727,0.592773440000201
-84.96199799,-121.38623047,0.592773440000201
-84.95893097,-121.38699341,0.592895510000062
-84.96337128,-121.38484192,0.593017580000151
-84.97959137,-121.37471008,0.593139650000012
-84.9668808,-121.37860107,0.5932617200001
-84.95707703,-121.37451172,0.59350586000005
-84.96424103,-121.36266327,0.59350586000005
-84.96250153,-121.3897934,0.59350586000005
-84.95906067,-121.35623932,0.59350586000005
-84.96537018,-121.38526154,0.59375
-84.97122955,-121.37258148,0.593872070000089
-84.97284698,-121.37428284,0.594238280000127
-84.95365143,-121.39086151,0.594238280000127
-84.98197937,-121.37519073,0.594360350000215
-84.9675827,-121.37966919,0.594482420000077
-84.9671936,-121.36589813,0.594482420000077
-84.97650146,-121.37094879,0.594604500000059
-84.98716736,-121.38175964,0.594726570000148
-84.95796967,-121.37145996,0.594848640000009
-84.95845032,-121.37748718,0.595092780000186
-84.96337891,-121.35781097,0.595336920000136
-84.95992279,-121.37230682,0.595458990000225
-84.96190643,-121.38851929,0.595458990000225
-84.95503235,-121.38973999,0.595458990000225
-84.98522949,-121.37982941,0.595581060000086
-84.98243713,-121.38115692,0.596069340000213
-84.96463013,-121.37548828,0.596191410000074
-84.97094727,-121.37380981,0.596679690000201
-84.95571136,-121.38806152,0.596923830000151
-84.97271729,-121.37496185,0.597045900000012
-84.95928192,-121.35610962,0.597045900000012
-84.95599365,-121.39109039,0.5971679700001
-84.95906067,-121.39032745,0.597290040000189
-84.9794693,-121.36689758,0.597534180000139
-84.97981262,-121.37346649,0.597534180000139
-84.95173645,-121.36112213,0.597534180000139
-84.96195221,-121.3706131,0.59765625
-84.96041107,-121.38617706,0.597900390000177
-84.98288727,-121.37970734,0.598022460000038
-84.96376801,-121.36669922,0.598022460000038
-84.9502182,-121.38813782,0.598144530000127
-84.98034668,-121.3809967,0.598388670000077
-84.9679184,-121.37374115,0.598388670000077
-84.9575882,-121.35942841,0.598876960000098
-84.96447754,-121.37225342,0.598999030000186
-84.95027161,-121.39116669,0.599121100000048
-84.95033264,-121.39694977,0.599487310000086
-84.95478821,-121.35888672,0.599731450000036
-84.97186279,-121.37708282,0.599853520000124
-84.95670319,-121.38942719,0.599853520000124
-84.98136902,-121.37740326,0.599975590000213
-84.96334839,-121.38468933,0.599975590000213
-84.96111298,-121.38450623,0.600097660000074
-84.95136261,-121.38726044,0.600097660000074
-84.98325348,-121.38645172,0.600341800000024
-84.9655304,-121.37634277,0.600585940000201
-84.96627808,-121.37359619,0.600830080000151
-84.96157837,-121.36730194,0.600830080000151
-84.97501373,-121.37509918,0.6010742200001
-84.9576416,-121.39077759,0.6010742200001
-84.95033264,-121.3911972,0.6010742200001
-84.96708679,-121.37876892,0.60131836000005
-84.96227264,-121.38613129,0.60131836000005
-84.96875763,-121.37329865,0.601928710000038
-84.98181152,-121.37467957,0.601928710000038
-84.95417023,-121.36023712,0.602050780000127
-84.96457672,-121.37255859,0.602172850000215
-84.96414185,-121.37322235,0.602294920000077
-84.98374176,-121.38397217,0.602294920000077
-84.9616394,-121.38182831,0.602417000000059
-84.95570374,-121.39038849,0.602417000000059
-84.97541809,-121.37342072,0.602783210000098
-84.96166229,-121.3881073,0.602783210000098
-84.95059967,-121.39476013,0.602783210000098
-84.96829987,-121.38036346,0.603149420000136
-84.98853302,-121.38369751,0.603271490000225
-84.98641968,-121.38337708,0.603271490000225
-84.95214081,-121.38812256,0.603271490000225
-84.95184326,-121.36418915,0.603637700000036
-84.96038055,-121.39202881,0.603759770000124
-84.98220825,-121.37297821,0.604125980000163
-84.96835327,-121.38339233,0.604370120000112
-84.95886993,-121.39243317,0.604492190000201
-84.96470642,-121.35980988,0.604614260000062
-84.95059967,-121.36284637,0.604614260000062
-84.96855927,-121.38089752,0.604736330000151
-84.96238708,-121.37315369,0.604858400000012
-84.98696899,-121.38114929,0.6049804700001
-84.96376038,-121.37394714,0.605102540000189
-84.95001984,-121.3653183,0.605102540000189
-84.96704865,-121.38755798,0.605102540000189
-84.96528625,-121.37515259,0.60546875
-84.96662903,-121.37181091,0.605590820000089
-84.9697113,-121.38577271,0.605590820000089
-84.96198273,-121.38842773,0.605712890000177
-84.95908356,-121.39021301,0.605834960000038
-84.95014191,-121.36128998,0.606079100000215
-84.96479797,-121.37036896,0.606201170000077
-84.95868683,-121.39218903,0.606323250000059
-84.95266724,-121.38896179,0.606323250000059
-84.95423126,-121.38832855,0.606445320000148
-84.96109009,-121.38410187,0.606567390000009
-84.95184326,-121.39015198,0.606811530000186
-84.98130798,-121.37612152,0.606933600000048
-84.95387268,-121.35738373,0.607055670000136
-84.97180176,-121.37705994,0.607299810000086
-84.96555328,-121.38522339,0.607421880000174
-84.95494843,-121.38915253,0.607421880000174
-84.95983124,-121.39103699,0.607543950000036
-84.98751068,-121.38758087,0.607666020000124
-84.96669006,-121.37094116,0.607788090000213
-84.96096802,-121.38938141,0.607788090000213
-84.98326111,-121.37695313,0.608032230000163
-84.96308136,-121.36834717,0.608398440000201
-84.97080994,-121.3723526,0.608642580000151
-84.95368195,-121.39308167,0.608642580000151
-84.95633698,-121.39128876,0.6088867200001
-84.97647095,-121.37626648,0.60913086000005
-84.97219849,-121.37535858,0.609252930000139
-84.95259094,-121.36151123,0.609252930000139
-84.96318054,-121.38732147,0.609252930000139
-84.96362305,-121.38184357,0.609619140000177
-84.96383667,-121.37325287,0.609863280000127
-84.96121979,-121.37934875,0.609985350000215
-84.95482635,-121.39495087,0.610107420000077
-84.95482635,-121.39195251,0.610717780000186
-84.96573639,-121.3738327,0.610839850000048
-84.95948792,-121.37206268,0.610961920000136
-84.95503998,-121.3894577,0.610961920000136
-84.95290375,-121.35896301,0.611206060000086
-84.97648621,-121.37644196,0.611328130000174
-84.97821045,-121.37734985,0.611694340000213
-84.9523468,-121.35475922,0.611694340000213
-84.98348999,-121.37573242,0.611938480000163
-84.96217346,-121.37145996,0.611938480000163
-84.95423126,-121.39392853,0.612426760000062
-84.97157288,-121.37741089,0.612548830000151
-84.98045349,-121.37837219,0.6127929700001
-84.95063019,-121.36683655,0.612915040000189
-84.95471191,-121.36421204,0.613159180000139
-84.96263885,-121.37744141,0.613403320000089
-84.95323944,-121.36315155,0.613403320000089
-84.96443176,-121.36927032,0.613403320000089
-84.96243286,-121.37032318,0.613647460000038
-84.96324921,-121.37252808,0.613647460000038
-84.962883,-121.38334656,0.613769530000127
-84.9593277,-121.38707733,0.613891600000215
-84.95052338,-121.35173798,0.613891600000215
-84.95041656,-121.36528778,0.614135750000059
-84.97221375,-121.37439728,0.614257820000148
-84.96624756,-121.37152863,0.614746100000048
-84.96048737,-121.38868713,0.614746100000048
-84.95015717,-121.36524963,0.615112310000086
-84.96201324,-121.38529968,0.615112310000086
-84.97518158,-121.37272644,0.615234380000174
-84.95437622,-121.35836792,0.615234380000174
-84.9511795,-121.38922119,0.615356450000036
-84.97651672,-121.37550354,0.615600590000213
-84.95184326,-121.38726807,0.615600590000213
-84.95333862,-121.35932159,0.615722660000074
-84.96891785,-121.37093353,0.616088870000112
-84.96340942,-121.38719177,0.616210940000201
-84.95565033,-121.39009094,0.616210940000201
-84.95709229,-121.38607025,0.616210940000201
-84.96141815,-121.38703156,0.616333010000062
-84.95079803,-121.39447784,0.616455080000151
-84.95835876,-121.37539673,0.616577150000012
-84.95742035,-121.38697052,0.6166992200001
-84.95941925,-121.38713074,0.616821290000189
-84.95348358,-121.39569092,0.61694336000005
-84.95745087,-121.38999176,0.617065430000139
-84.95503998,-121.3791275,0.6171875
-84.97149658,-121.37724304,0.617309570000089
-84.96278381,-121.38288879,0.617309570000089
-84.96167755,-121.38732147,0.617553710000038
-84.95986938,-121.3735733,0.617675780000127
-84.95353699,-121.35999298,0.617797850000215
-84.98464203,-121.37908173,0.618042000000059
-84.9644165,-121.37023926,0.618164070000148
-84.96907806,-121.37055206,0.618286140000009
-84.96015167,-121.38796234,0.618286140000009
-84.95436859,-121.38800812,0.618286140000009
-84.96566772,-121.37380981,0.618408210000098
-84.95139313,-121.36441803,0.618652350000048
-84.96080017,-121.38300323,0.618652350000048
-84.96092987,-121.36419678,0.618652350000048
-84.95604706,-121.36254883,0.618896490000225
-84.9617691,-121.37227631,0.619506840000213
-84.96369171,-121.37547302,0.619873050000024
-84.96082306,-121.38327026,0.619873050000024
-84.95307922,-121.38919067,0.619995120000112
-84.95928955,-121.38365936,0.620239260000062
-84.96515656,-121.37201691,0.620361330000151
-84.95204163,-121.39312744,0.620483400000012
-84.96910095,-121.37812042,0.6206054700001
-84.95720673,-121.36179352,0.6206054700001
-84.95185852,-121.36486816,0.620727540000189
-84.9593277,-121.38995361,0.62109375
-84.96846008,-121.37259674,0.621582030000127
-84.96199799,-121.38490295,0.621582030000127
-84.95868683,-121.39190674,0.621582030000127
-84.98162079,-121.38186646,0.621704100000215
-84.9601593,-121.36427307,0.621704100000215
-84.96005249,-121.38751221,0.621826170000077
-84.95358276,-121.38674927,0.621826170000077
-84.96365356,-121.37281036,0.622070320000148
-84.96292114,-121.38297272,0.622070320000148
-84.97151947,-121.37628174,0.622314460000098
-84.96292877,-121.38950348,0.622680670000136
-84.96109772,-121.37407684,0.622802740000225
-84.95983887,-121.39051056,0.622802740000225
-84.95384216,-121.39028931,0.622924810000086
-84.96308136,-121.38149261,0.623413090000213
-84.96337891,-121.3840332,0.623535160000074
-84.98422241,-121.3797226,0.623657230000163
-84.97403717,-121.37621307,0.623779300000024
-84.96985626,-121.37451172,0.623901370000112
-84.97576904,-121.37712097,0.623901370000112
-84.9719696,-121.37483978,0.624023440000201
-84.96370697,-121.37194824,0.624267580000151
-84.96440125,-121.3748703,0.624267580000151
-84.95548248,-121.38919067,0.6245117200001
-84.95371246,-121.39256287,0.6245117200001
-84.97898102,-121.3828125,0.624633790000189
-84.96749878,-121.37548065,0.62475586000005
-84.95831299,-121.3884201,0.624877930000139
-84.97699738,-121.38066101,0.625
-84.97679901,-121.37352753,0.625244140000177
-84.96608734,-121.37116241,0.625244140000177
-84.96389008,-121.38459778,0.625244140000177
-84.96125031,-121.37368011,0.625610350000215
-84.97968292,-121.38007355,0.625854500000059
-84.96215057,-121.38799286,0.626220710000098
-84.97830963,-121.37597656,0.626586920000136
-84.96058655,-121.35545349,0.626708990000225
-84.97158813,-121.3755722,0.627075200000036
-84.95995331,-121.38757324,0.627075200000036
-84.96206665,-121.38437653,0.627197270000124
-84.96253204,-121.36344147,0.627441410000074
-84.98062134,-121.38465881,0.627685550000024
-84.98557281,-121.38388062,0.627807620000112
-84.98239136,-121.38581848,0.627807620000112
-84.95134735,-121.391922,0.627807620000112
-84.95513153,-121.39198303,0.628173830000151
-84.97612762,-121.37534332,0.628295900000012
-84.96351624,-121.38736725,0.628295900000012
-84.97969055,-121.38021851,0.628540040000189
-84.95938873,-121.37950897,0.628540040000189
-84.96392059,-121.3791275,0.62866211000005
-84.96484375,-121.37510681,0.62890625
-84.96379852,-121.38741302,0.629516600000215
-84.95838928,-121.36721039,0.629516600000215
-84.96981812,-121.37454987,0.629760750000059
-84.97721863,-121.37940979,0.629760750000059
-84.96159363,-121.38699341,0.629760750000059
-84.9626236,-121.37226868,0.629882820000148
-84.95729828,-121.37095642,0.629882820000148
-84.96694183,-121.37667084,0.630004890000009
-84.96128082,-121.36411285,0.630249030000186
-84.97882843,-121.37368011,0.630615240000225
-84.96292877,-121.37982941,0.630615240000225
-84.95889282,-121.38234711,0.630615240000225
-84.96021271,-121.37574005,0.630737310000086
-84.96295929,-121.38912201,0.630981450000036
-84.97608185,-121.37525177,0.631103520000124
-84.95522308,-121.39202881,0.631103520000124
-84.95435333,-121.39346313,0.631103520000124
-84.98079681,-121.37580109,0.631225590000213
-84.9620285,-121.3776474,0.631225590000213
-84.96579742,-121.38182831,0.631225590000213
-84.95783997,-121.37593842,0.631835940000201
-84.96124268,-121.38899994,0.631835940000201
-84.9588089,-121.39457703,0.631958010000062
-84.96273041,-121.37490845,0.632080080000151
-84.96405792,-121.38195038,0.632080080000151
-84.96569061,-121.37197876,0.63256836000005
-84.9526825,-121.35978699,0.6328125
-84.96212769,-121.38130951,0.632934570000089
-84.95860291,-121.36708832,0.633056640000177
-84.96192169,-121.38732147,0.633300780000127
-84.96193695,-121.39032745,0.633300780000127
-84.96079254,-121.38272095,0.633667000000059
-84.95839691,-121.39080811,0.633789070000148
-84.96807861,-121.37985992,0.633911140000009
-84.95089722,-121.35864258,0.634155280000186
-84.95620728,-121.39013672,0.634155280000186
-84.95957184,-121.36408234,0.634155280000186
-84.96720123,-121.37566376,0.635009770000124
-84.96041107,-121.38497162,0.635375980000163
-84.9628067,-121.36930847,0.635375980000163
-84.96006012,-121.36676025,0.635498050000024
-84.96501923,-121.37378693,0.635620120000112
-84.97943878,-121.38050079,0.635864260000062
-84.96063232,-121.38249207,0.635864260000062
-84.9522934,-121.39286804,0.635986330000151
-84.97366333,-121.37606812,0.636108400000012
-84.97528839,-121.37776947,0.6362304700001
-84.95514679,-121.3915863,0.6362304700001
-84.98120117,-121.38163757,0.636352540000189
-84.95337677,-121.39196014,0.63647461000005
-84.96322632,-121.37258911,0.636596680000139
-84.95401764,-121.38700104,0.636596680000139
-84.95990753,-121.37566376,0.63671875
-84.96219635,-121.3788681,0.637207030000127
-84.97094727,-121.37657928,0.637329100000215
-84.95687866,-121.36476135,0.637451170000077
-84.96630096,-121.37725067,0.637817390000009
-84.9580307,-121.37463379,0.638061530000186
-84.9587326,-121.38838959,0.638061530000186
-84.95511627,-121.35839844,0.638305670000136
-84.95831299,-121.39061737,0.638305670000136
-84.97770691,-121.37718201,0.638427740000225
-84.98139954,-121.38024139,0.638549810000086
-84.97904968,-121.38123322,0.638793950000036
-84.96027374,-121.36663818,0.639038090000213
-84.95124054,-121.38832092,0.639160160000074
-84.96051788,-121.38202667,0.639404300000024
-84.96195984,-121.38131714,0.639404300000024
-84.96881104,-121.3761673,0.639526370000112
-84.95014954,-121.38974762,0.6401367200001
-84.95482635,-121.39086914,0.640258790000189
-84.95149231,-121.38886261,0.640625
-84.97973633,-121.37846375,0.640747070000089
-84.96630096,-121.37767029,0.640747070000089
-84.9574585,-121.38632202,0.640747070000089
-84.98136902,-121.38015747,0.640869140000177
-84.96465302,-121.37467194,0.641113280000127
-84.97344208,-121.37641907,0.641357420000077
-84.95664215,-121.39077759,0.641357420000077
-84.96103668,-121.38587189,0.641601570000148
-84.96006012,-121.36966705,0.641601570000148
-84.96070099,-121.36624146,0.641723640000009
-84.9508667,-121.39083862,0.641845710000098
-84.95465851,-121.39064026,0.641967780000186
-84.96064758,-121.3878479,0.642089850000048
-84.96257019,-121.37454987,0.642333990000225
-84.95950317,-121.37698364,0.642333990000225
-84.95799255,-121.38990021,0.642333990000225
-84.95200348,-121.38942719,0.642333990000225
-84.96518707,-121.37242889,0.643310550000024
-84.9509201,-121.36260223,0.643310550000024
-84.95863342,-121.37892914,0.643554690000201
-84.95007324,-121.38905334,0.643676760000062
-84.95800781,-121.38716888,0.644165040000189
-84.95760345,-121.38913727,0.644165040000189
-84.97113037,-121.37525177,0.64428711000005
-84.97727966,-121.37779999,0.644409180000139
-84.96887207,-121.37545776,0.64453125
-84.95928192,-121.37846375,0.644653320000089
-84.95823669,-121.3781662,0.645019530000127
-84.95803833,-121.38391876,0.645019530000127
-84.95275116,-121.39053345,0.645019530000127
-84.95031738,-121.3895874,0.645141600000215
-84.9599762,-121.37203979,0.645385750000059
-84.95535278,-121.36765289,0.645507820000148
-84.95236969,-121.3633194,0.645629890000009
-84.9561615,-121.36193085,0.646118170000136
-84.95498657,-121.39122772,0.646240240000225
-84.95932007,-121.35700989,0.646484380000174
-84.95500946,-121.38796997,0.646728520000124
-84.95439148,-121.37835693,0.647094730000163
-84.96668243,-121.37606049,0.647216800000024
-84.97093964,-121.37568665,0.647338870000112
-84.95043945,-121.36071014,0.647338870000112
-84.95852661,-121.37547302,0.647583010000062
-84.95677185,-121.38511658,0.647705080000151
-84.95658112,-121.38761139,0.647705080000151
-84.96201324,-121.37573242,0.6479492200001
-84.97377014,-121.3745575,0.648071290000189
-84.95527649,-121.3915329,0.64819336000005
-84.96814728,-121.37827301,0.648315430000139
-84.95709991,-121.37030792,0.648315430000139
-84.9600296,-121.35746765,0.648559570000089
-84.95723724,-121.36696625,0.648559570000089
-84.95265961,-121.39008331,0.648803710000038
-84.9630127,-121.37960815,0.648925780000127
-84.95661926,-121.38764191,0.649169920000077
-84.96381378,-121.37709045,0.649292000000059
-84.95735168,-121.39121246,0.649414070000148
-84.9618988,-121.37476349,0.649536140000009
-84.96083069,-121.38220215,0.649658210000098
-84.96206665,-121.3748703,0.649902350000048
-84.96196747,-121.38053894,0.649902350000048
-84.95189667,-121.36283875,0.649902350000048
-84.95681,-121.3853302,0.649902350000048
