"X","Y","Z"
-85.06214142,-121.44637299,0.150146480000103
-85.07289124,-121.44898224,0.150634760000003
-85.0535202,-121.4387207,0.150756839999985
-85.06552124,-121.44181061,0.151000979999935
-85.05243683,-121.43560028,0.151245120000112
-85.0716629,-121.4443512,0.151367189999974
-85.06292725,-121.43875122,0.151367189999974
-85.05796051,-121.4462738,0.151489260000062
-85.06667328,-121.44612885,0.1518554700001
-85.05519104,-121.44619751,0.152221680000139
-85.05596161,-121.43972015,0.15234375
-85.0803833,-121.44705963,0.153442380000115
-85.05151367,-121.43612671,0.153808589999926
-85.05310059,-121.43525696,0.154296870000053
-85.05017853,-121.42775726,0.154418940000141
-85.05690002,-121.44458771,0.154541010000003
-85.07613373,-121.44508362,0.154785160000074
-85.05843353,-121.44611359,0.154785160000074
-85.0602417,-121.44219971,0.155395510000062
-85.06639862,-121.44664764,0.1557617200001
-85.05583191,-121.44277191,0.15600586000005
-85.0534668,-121.43858337,0.156738280000127
-85.05561066,-121.43950653,0.156860349999988
-85.06495667,-121.44434357,0.156982420000077
-85.0772934,-121.44831085,0.157348630000115
-85.05462646,-121.4473877,0.157470699999976
-85.05014038,-121.35256958,0.157714839999926
-85.05653381,-121.44410706,0.157714839999926
-85.05101013,-121.43190765,0.159179689999974
-85.05296326,-121.43862152,0.159301760000062
-85.05528259,-121.43878174,0.16040038999995
-85.05899811,-121.43974304,0.161376949999976
-85.07089233,-121.44590759,0.161499020000065
-85.05419159,-121.43395233,0.161743160000015
-85.0532608,-121.42360687,0.162475589999985
-85.05873108,-121.44386292,0.163208010000062
-85.07936859,-121.44994354,0.163696289999962
-85.06233215,-121.43856049,0.16381836000005
-85.05049133,-121.42768097,0.164184570000089
-85.05484772,-121.44348145,0.164916989999938
-85.05362701,-121.43295288,0.165283199999976
-85.06098175,-121.44481659,0.165405270000065
-85.06079865,-121.44458008,0.167114260000062
-85.05519867,-121.43286133,0.167236330000151
-85.05944824,-121.43972015,0.16796875
-85.06350708,-121.44882202,0.16796875
-85.06091309,-121.44712067,0.168823239999938
-85.05706787,-121.43580627,0.170410160000074
-85.05802917,-121.43965149,0.170532229999935
-85.06201172,-121.44348145,0.170898439999974
-85.05602264,-121.4431076,0.171142580000151
-85.05740356,-121.44161987,0.171264650000012
-85.05400848,-121.42730713,0.1713867200001
-85.05918884,-121.43524933,0.172363280000127
-85.05812073,-121.44270325,0.172973630000115
-85.05207825,-121.43019104,0.173095699999976
-85.05065155,-121.44863892,0.173583980000103
-85.0552597,-121.44319153,0.173828120000053
-85.0581131,-121.43721008,0.174804689999974
-85.05684662,-121.44389343,0.17553711000005
-85.0772171,-121.44927216,0.175659180000139
-85.05570984,-121.42976379,0.17578125
-85.05531311,-121.44452667,0.17578125
-85.05020142,-121.42983246,0.176147460000038
-85.06839752,-121.44554138,0.176269530000127
-85.05348206,-121.42333221,0.176757810000026
-85.05695343,-121.44969177,0.177124020000065
-85.05019379,-121.42709351,0.177246089999926
-85.06623077,-121.4466629,0.177490230000103
-85.0717926,-121.44741821,0.177856440000141
-85.06336975,-121.44819641,0.177978510000003
-85.05470276,-121.4372406,0.178466800000024
-85.07498932,-121.44962311,0.178466800000024
-85.05966187,-121.44506073,0.178710939999974
-85.06537628,-121.44537354,0.1791992200001
-85.05223846,-121.42727661,0.1791992200001
-85.0580368,-121.43676758,0.179565430000139
-85.05690765,-121.42865753,0.179565430000139
-85.05032349,-121.44243622,0.1796875
-85.06786346,-121.44934082,0.180053710000038
-85.05671692,-121.42867279,0.181274410000015
-85.0712204,-121.44888306,0.182006839999985
-85.0519104,-121.41454315,0.184692380000115
-85.06551361,-121.43969727,0.185058589999926
-85.06577301,-121.44299316,0.185791010000003
-85.06600189,-121.44024658,0.186279300000024
-85.05175781,-121.4140625,0.186645510000062
-85.05509949,-121.41684723,0.188232420000077
-85.06005859,-121.43379974,0.188598630000115
-85.05738068,-121.42031097,0.189697260000003
-85.05406189,-121.42105865,0.189697260000003
-85.05097198,-121.41253662,0.189941410000074
-85.06611633,-121.44058228,0.191040039999962
-85.07344818,-121.44985199,0.19116211000005
-85.05570984,-121.42021942,0.192260739999938
-85.06397247,-121.43994141,0.192626949999976
-85.05908966,-121.429039,0.193969729999935
-85.06645203,-121.44091034,0.194335939999974
-85.07415771,-121.44965363,0.194458010000062
-85.06983185,-121.44921112,0.1948242200001
-85.05046844,-121.41184235,0.196289060000026
-85.07076263,-121.44779968,0.196777339999926
-85.05809021,-121.42726135,0.197509760000003
-85.06922913,-121.44544983,0.198364260000062
-85.06661987,-121.44126129,0.200561520000065
-85.05864716,-121.42485046,0.201538089999985
-85.06739044,-121.4388504,0.203002930000139
-85.07096863,-121.44766235,0.203247070000089
-85.05451202,-121.41779327,0.203735349999988
-85.05269623,-121.41239166,0.204711910000015
-85.06788635,-121.44293976,0.205200190000141
-85.06655121,-121.43456268,0.205688479999935
-85.05763245,-121.4203186,0.205688479999935
-85.05857849,-121.42440796,0.206298830000151
-85.06443787,-121.44268036,0.2065429700001
-85.06240082,-121.43049622,0.207397460000038
-85.05975342,-121.43254852,0.207885739999938
-85.06069183,-121.43689728,0.208740230000103
-85.06607056,-121.44535828,0.209472660000074
-85.05760956,-121.4286499,0.209716800000024
-85.05243683,-121.41770935,0.209838870000112
-85.068573,-121.44934082,0.210815430000139
-85.05789948,-121.42948151,0.213256839999985
-85.05766296,-121.42620087,0.213500979999935
-85.05859375,-121.42780304,0.214965820000089
-85.06774139,-121.44230652,0.214965820000089
-85.06578064,-121.43917847,0.216796870000053
-85.05314636,-121.41539001,0.218627930000139
-85.06034088,-121.43029022,0.221191410000074
-85.06043243,-121.43282318,0.22241211000005
-85.06934357,-121.44731903,0.22265625
-85.06199646,-121.43271637,0.224121089999926
-85.06960297,-121.44786072,0.224365230000103
-85.06230927,-121.43878174,0.225219729999935
-85.06098938,-121.43994141,0.225952150000012
-85.06147766,-121.43723297,0.22680663999995
-85.05474091,-121.4209137,0.227294920000077
-85.05726624,-121.43390656,0.228149410000015
-85.05438232,-121.4229126,0.228759760000003
-85.05223083,-121.43126678,0.228881839999985
-85.054039,-121.43418121,0.2299804700001
-85.05104828,-121.43550873,0.23413086000005
