"X","Y","Z"
-84.96246338,-121.40345001,0.360839850000048
-84.95694733,-121.38352966,0.361083990000225
-84.96153259,-121.35787964,0.361083990000225
-84.9599762,-121.39672852,0.361083990000225
-84.96903992,-121.37412262,0.361206060000086
-84.9667511,-121.37119293,0.361206060000086
-84.96630859,-121.37365723,0.361206060000086
-84.96196747,-121.39061737,0.361328130000174
-84.97174072,-121.39414978,0.361450200000036
-84.97418976,-121.38786316,0.361572270000124
-84.96737671,-121.41136932,0.361572270000124
-84.99291992,-121.36122894,0.361694340000213
-84.96086884,-121.37783813,0.361694340000213
-84.97998047,-121.36897278,0.361694340000213
-84.98397827,-121.36602783,0.361816410000074
-84.95313263,-121.37254333,0.361938480000163
-84.9503479,-121.37387848,0.361938480000163
-84.98110199,-121.4382782,0.361938480000163
-84.96565247,-121.36891937,0.362060550000024
-84.9521637,-121.36786652,0.362304690000201
-84.96842194,-121.39515686,0.362304690000201
-84.96572113,-121.36070251,0.362304690000201
-84.97891998,-121.35340118,0.362426760000062
-84.96562195,-121.36708069,0.362548830000151
-84.97527313,-121.38324738,0.362670900000012
-84.98599243,-121.35111237,0.362670900000012
-84.96656036,-121.37419891,0.362670900000012
-84.96788025,-121.41192627,0.3627929700001
-84.9539032,-121.37873077,0.362915040000189
-84.95276642,-121.40351105,0.362915040000189
-84.95710754,-121.38925934,0.36303711000005
-84.95848846,-121.39414215,0.363159180000139
-84.97112274,-121.39312744,0.36328125
-84.97904968,-121.35720825,0.363403320000089
-84.98471832,-121.36685944,0.363525390000177
-84.96736145,-121.37104797,0.363647460000038
-84.96929169,-121.37294769,0.363647460000038
-84.96704865,-121.37802124,0.363647460000038
-84.96961212,-121.3997879,0.363647460000038
-84.98161316,-121.4388504,0.363647460000038
-84.95677185,-121.38397217,0.363891600000215
-84.96090698,-121.39232635,0.363891600000215
-84.96705627,-121.38458252,0.363891600000215
-84.97354126,-121.3970871,0.364135750000059
-84.97180939,-121.39746094,0.364135750000059
-84.97061157,-121.41918182,0.364135750000059
-84.97615051,-121.38018799,0.364257820000148
-84.96858978,-121.41300964,0.364257820000148
-84.97727203,-121.39298248,0.364501960000098
-84.98075867,-121.38764191,0.364868170000136
-84.98874664,-121.35012817,0.364868170000136
-84.9571991,-121.35887146,0.364868170000136
-84.97093964,-121.39289093,0.364990240000225
-84.96244812,-121.37201691,0.365112310000086
-84.96752167,-121.37581635,0.365356450000036
-84.96733093,-121.37831116,0.365356450000036
-84.97344208,-121.39961243,0.365356450000036
-84.97705078,-121.38455963,0.365478520000124
-84.9853363,-121.3789978,0.365600590000213
-84.98169708,-121.36791229,0.365600590000213
-84.96056366,-121.39434052,0.365600590000213
-84.99278259,-121.37669373,0.365722660000074
-84.9745636,-121.39349365,0.365722660000074
-84.98612976,-121.44600677,0.365722660000074
-84.98325348,-121.44754028,0.365722660000074
-84.99314117,-121.36000061,0.365844730000163
-84.99524689,-121.36032867,0.365844730000163
-84.95726013,-121.38150024,0.365844730000163
-84.97943115,-121.43544769,0.365844730000163
-84.9708786,-121.37457275,0.366088870000112
-84.99677277,-121.37992859,0.366088870000112
-84.97164917,-121.39395905,0.366210940000201
-84.96913147,-121.41658783,0.366210940000201
-84.98625946,-121.35224915,0.366333010000062
-84.97283936,-121.3704834,0.366333010000062
-84.96163177,-121.38272858,0.366333010000062
-84.97393799,-121.37085724,0.366455080000151
-84.9812088,-121.35057831,0.366577150000012
-84.96054077,-121.44953156,0.366577150000012
-84.96398163,-121.36702728,0.3666992200001
-84.96392822,-121.3966217,0.3666992200001
-84.9582901,-121.37792206,0.36694336000005
-84.9710083,-121.39919281,0.36694336000005
-84.96575928,-121.40856171,0.36694336000005
-84.99381256,-121.37310028,0.367065430000139
-84.9837265,-121.37135315,0.367065430000139
-84.97576904,-121.38773346,0.367065430000139
-84.98684692,-121.36682892,0.3671875
-84.96781158,-121.37286377,0.3671875
-84.965271,-121.39572906,0.3671875
-84.98416138,-121.44612885,0.3671875
-84.97830963,-121.43112183,0.3671875
-84.99613953,-121.36467743,0.367309570000089
-84.99497223,-121.37872314,0.367309570000089
-84.977211,-121.38419342,0.367431640000177
-84.97184753,-121.42082977,0.367553710000038
-84.95816803,-121.39367676,0.367675780000127
-84.9957428,-121.35784912,0.367797850000215
-84.97995758,-121.36856079,0.367919920000077
-84.98326874,-121.4385376,0.367919920000077
-84.98130798,-121.44441223,0.368042000000059
-84.97537231,-121.37535095,0.368164070000148
-84.97708893,-121.37626648,0.368164070000148
-84.96092987,-121.35862732,0.368164070000148
-84.97128296,-121.3728714,0.368286140000009
-84.95767212,-121.44532013,0.368530280000186
-84.96901703,-121.37306976,0.368652350000048
-84.95076752,-121.37251282,0.368652350000048
-84.96975708,-121.39987183,0.368652350000048
-84.9597702,-121.39608002,0.368774420000136
-84.99691772,-121.37953949,0.368896490000225
-84.95935822,-121.36031342,0.368896490000225
-84.97393036,-121.39467621,0.368896490000225
-84.96608734,-121.36998749,0.369018560000086
-84.98116302,-121.44667053,0.369018560000086
-84.98719025,-121.35044098,0.369140630000174
-84.97245789,-121.36158752,0.369140630000174
-84.99701691,-121.36161804,0.369262700000036
-84.96208954,-121.36089325,0.369262700000036
-84.96838379,-121.38246918,0.369262700000036
-84.95404053,-121.38458252,0.369384770000124
-84.98616791,-121.35115051,0.369384770000124
-84.97219849,-121.39781952,0.369384770000124
-84.97080231,-121.38365936,0.369384770000124
-84.98240662,-121.4372406,0.369384770000124
-84.97062683,-121.36734009,0.369506840000213
-84.97789001,-121.38140869,0.369628910000074
-84.9719696,-121.37011719,0.369628910000074
-84.98500061,-121.35240173,0.369873050000024
-84.96482849,-121.35318756,0.369995120000112
-84.96279144,-121.35437775,0.369995120000112
-84.97264862,-121.38907623,0.369995120000112
-84.95256042,-121.4066925,0.369995120000112
-84.97245026,-121.37612915,0.370117190000201
-84.97554016,-121.3970871,0.370117190000201
-84.9626236,-121.35961914,0.370239260000062
-84.990242,-121.36312866,0.370239260000062
-84.99810028,-121.35700989,0.370361330000151
-84.97740173,-121.37535095,0.370361330000151
-84.97641754,-121.39523315,0.370361330000151
-84.97966003,-121.35090637,0.370361330000151
-84.97756195,-121.36489105,0.370361330000151
-84.96498108,-121.36540985,0.370361330000151
-84.96881104,-121.37423706,0.370361330000151
-84.99994659,-121.3757782,0.370483400000012
-84.97499847,-121.35193634,0.370483400000012
-84.98190308,-121.35121918,0.3706054700001
-84.96453857,-121.35442352,0.3706054700001
-84.98162079,-121.36772919,0.3706054700001
-84.95594788,-121.44245148,0.3706054700001
-84.97074127,-121.3771286,0.370727540000189
-84.97535706,-121.39331818,0.37084961000005
-84.95739746,-121.39517212,0.37084961000005
-84.97499084,-121.376091,0.370971680000139
-84.99391937,-121.38237762,0.370971680000139
-84.95693207,-121.38835907,0.370971680000139
-84.98538971,-121.36451721,0.37109375
-84.9589386,-121.39479065,0.37109375
-84.97627258,-121.4362793,0.37109375
-84.97348785,-121.37255096,0.371215820000089
-84.97798157,-121.38925171,0.371215820000089
-84.96305847,-121.36135101,0.371215820000089
-84.97115326,-121.38899231,0.371215820000089
-84.97338104,-121.40270233,0.371337890000177
-84.97181702,-121.39705658,0.371459960000038
-84.96530151,-121.36692047,0.371459960000038
-84.9796524,-121.35086823,0.371582030000127
-84.97377777,-121.4298172,0.371582030000127
-84.96382904,-121.37403107,0.371704100000215
-84.96141815,-121.40177155,0.371704100000215
-84.96867371,-121.37976837,0.371826170000077
-84.97119141,-121.40203857,0.371826170000077
-84.97968292,-121.38273621,0.371948250000059
-84.97563171,-121.40313721,0.371948250000059
-84.96591187,-121.408638,0.371948250000059
-84.97824097,-121.43067932,0.371948250000059
-84.98474884,-121.36673737,0.372070320000148
-84.98670197,-121.35202789,0.372070320000148
-84.99127197,-121.36601257,0.372314460000098
-84.96987152,-121.36994171,0.372314460000098
-84.95520782,-121.35605621,0.372314460000098
-84.97268677,-121.38636017,0.372314460000098
-84.97831726,-121.43946838,0.372314460000098
-84.97615814,-121.40389252,0.372436530000186
-84.95571136,-121.37798309,0.372436530000186
-84.95919037,-121.39206696,0.372436530000186
-84.9701767,-121.41526031,0.372436530000186
-84.95556641,-121.4417038,0.372436530000186
-84.9990387,-121.36286163,0.372558600000048
-84.9575882,-121.37963867,0.372558600000048
-84.962883,-121.35855103,0.372680670000136
-84.97428131,-121.39176178,0.372680670000136
-84.97985077,-121.38378906,0.372680670000136
-84.97068024,-121.37510681,0.373046880000174
-84.99411774,-121.38098145,0.373168950000036
-84.9598465,-121.35919189,0.373168950000036
-84.97290802,-121.38062286,0.373168950000036
-84.99384308,-121.36321259,0.373291020000124
-84.99523163,-121.35926819,0.373413090000213
-84.95120239,-121.38706207,0.373413090000213
-84.95702362,-121.39141083,0.373413090000213
-84.95108032,-121.37046814,0.373535160000074
-84.95783997,-121.44515228,0.373535160000074
-84.97431946,-121.3779068,0.373657230000163
-84.96990967,-121.39996338,0.373657230000163
-84.96083069,-121.3768692,0.373779300000024
-84.98345947,-121.36466217,0.373901370000112
-84.96012115,-121.39366913,0.373901370000112
-84.97722626,-121.3992691,0.374023440000201
-84.97866821,-121.35700989,0.374023440000201
-84.98990631,-121.3624115,0.374023440000201
-84.96910858,-121.41343689,0.374023440000201
-84.97074127,-121.42159271,0.374023440000201
-84.96929169,-121.40167236,0.374145510000062
-84.97679901,-121.43711853,0.374145510000062
-84.96591949,-121.39990234,0.374267580000151
-84.96588898,-121.37844849,0.374267580000151
-84.9782486,-121.37962341,0.374389650000012
-84.96321869,-121.376091,0.3745117200001
-84.97566223,-121.38066101,0.374633790000189
-84.97569275,-121.38197327,0.374633790000189
-84.97228241,-121.3795929,0.37475586000005
-84.96372986,-121.39923859,0.374877930000139
-84.95197296,-121.37483215,0.375
-84.97949982,-121.36762238,0.375
-84.9575119,-121.39222717,0.375
-84.9908905,-121.36675262,0.375122070000089
-84.97180176,-121.37812042,0.375122070000089
-84.99326324,-121.36495209,0.375122070000089
-84.98573303,-121.36184692,0.375122070000089
-84.96958923,-121.37888336,0.375122070000089
-84.96762848,-121.42011261,0.375122070000089
-84.96742249,-121.36930847,0.375244140000177
-84.98278809,-121.37940216,0.375366210000038
-84.99411011,-121.3637619,0.375366210000038
-84.9733963,-121.37844086,0.375488280000127
-84.99749756,-121.35923004,0.375610350000215
-84.99832916,-121.36569977,0.375610350000215
-84.99510193,-121.35997772,0.375610350000215
-84.99868011,-121.37967682,0.375610350000215
-84.95072174,-121.43759918,0.375610350000215
-84.98242188,-121.36911774,0.375854500000059
-84.95908356,-121.39486694,0.375854500000059
-84.98082733,-121.35150909,0.376098640000009
-84.96643066,-121.40046692,0.376098640000009
-84.97447968,-121.3775177,0.376220710000098
-84.9732666,-121.37291718,0.376220710000098
-84.95374298,-121.3536377,0.376220710000098
-84.97123718,-121.42568207,0.376220710000098
-84.95581818,-121.4148407,0.376220710000098
-84.98684692,-121.36396027,0.376342780000186
-84.97154236,-121.39936829,0.376342780000186
-84.99954987,-121.36055756,0.376464850000048
-84.95691681,-121.35572815,0.376464850000048
-84.97490692,-121.3640213,0.376464850000048
-84.9692688,-121.3775177,0.376464850000048
-84.97595978,-121.37976074,0.376586920000136
-84.97215271,-121.36878967,0.376586920000136
-84.98175812,-121.44206238,0.376586920000136
-84.97966003,-121.3828125,0.376708990000225
-84.96270752,-121.400177,0.376708990000225
-84.9702301,-121.40028381,0.376953130000174
-84.98423004,-121.36576843,0.377075200000036
-84.97844696,-121.36582184,0.377075200000036
-84.96295166,-121.40371704,0.377075200000036
-84.96061707,-121.40096283,0.377197270000124
-84.98931885,-121.36165619,0.377319340000213
-84.98670959,-121.36621857,0.377319340000213
-84.95207977,-121.37419891,0.377441410000074
-84.96878815,-121.3740921,0.377441410000074
-84.96646881,-121.40048981,0.377563480000163
-84.95437622,-121.41812897,0.377563480000163
-84.98047638,-121.36898804,0.377685550000024
-84.97081757,-121.4251709,0.377685550000024
-84.95034027,-121.4368515,0.377685550000024
-84.95935822,-121.37242126,0.377807620000112
-84.97786713,-121.35736847,0.377807620000112
-84.9906311,-121.35800934,0.377807620000112
-84.96251678,-121.40621185,0.377807620000112
-84.9750824,-121.37554169,0.377929690000201
-84.99878693,-121.37905884,0.377929690000201
-84.96988678,-121.37293243,0.377929690000201
-84.9773407,-121.39333344,0.378051760000062
-84.97228241,-121.4034729,0.378051760000062
-84.97869873,-121.39846039,0.378173830000151
-84.97325134,-121.38259125,0.378173830000151
-84.98423767,-121.38155365,0.378295900000012
-84.98143768,-121.36225891,0.378295900000012
-84.98191833,-121.37409973,0.3784179700001
-84.97685242,-121.39003754,0.3784179700001
-84.96144867,-121.40738678,0.378540040000189
-84.97833252,-121.38672638,0.378540040000189
-84.97366333,-121.37120819,0.37866211000005
-84.99089813,-121.36129761,0.37866211000005
-84.96861267,-121.37358856,0.37866211000005
-84.95304108,-121.41223907,0.37866211000005
-84.99874115,-121.35424805,0.378784180000139
-84.96069336,-121.3677597,0.37890625
-84.98319244,-121.36696625,0.37890625
-84.96701813,-121.35973358,0.379028320000089
-84.99465942,-121.35507965,0.379028320000089
-84.96498108,-121.40090179,0.379028320000089
-84.9604187,-121.37094879,0.379028320000089
-84.97798157,-121.37975311,0.379150390000177
-84.95588684,-121.37666321,0.379150390000177
-84.95313263,-121.38668823,0.379150390000177
-84.9706192,-121.37375641,0.379150390000177
-84.95288849,-121.41555786,0.379150390000177
-84.99936676,-121.36100006,0.379272460000038
-84.97557831,-121.38049316,0.379272460000038
-84.96720886,-121.40132904,0.379272460000038
-84.95140839,-121.35494995,0.379394530000127
-84.98143768,-121.36708832,0.379394530000127
-84.98052979,-121.36901855,0.379394530000127
-84.96103668,-121.39778137,0.379394530000127
-84.99349976,-121.36475372,0.379760750000059
-84.95540619,-121.35482025,0.379760750000059
-84.97847748,-121.39218903,0.379760750000059
-84.95935822,-121.44737244,0.379760750000059
-84.97299194,-121.38539886,0.379760750000059
-84.97022247,-121.37599182,0.379882820000148
-84.97276306,-121.40126801,0.379882820000148
-84.96768951,-121.40514374,0.379882820000148
-84.98861694,-121.37444305,0.380004890000009
-84.97657013,-121.35800171,0.380004890000009
-84.98568726,-121.37068939,0.380004890000009
-84.98390961,-121.37104797,0.380004890000009
-84.96437836,-121.37206268,0.380126960000098
-84.98542023,-121.36138916,0.380126960000098
-84.97560883,-121.39698792,0.380126960000098
-84.9585495,-121.39689636,0.380126960000098
-84.98483276,-121.37956238,0.380249030000186
-84.99358368,-121.35652161,0.380249030000186
-84.96170044,-121.39839935,0.380249030000186
-84.96598053,-121.36039734,0.380493170000136
-84.99120331,-121.36135101,0.380493170000136
-84.98944092,-121.36145782,0.380493170000136
-84.97720337,-121.39611053,0.380493170000136
-84.98010254,-121.43596649,0.380493170000136
-84.96327972,-121.3588028,0.380737310000086
-84.97987366,-121.39733124,0.380737310000086
-84.96101379,-121.37552643,0.380981450000036
-84.98612976,-121.36547089,0.380981450000036
-84.97618103,-121.37397003,0.380981450000036
-84.96865082,-121.3708725,0.380981450000036
-84.97412872,-121.40339661,0.380981450000036
-84.96125031,-121.3796463,0.380981450000036
-84.95288086,-121.4183197,0.380981450000036
-84.9646225,-121.4031601,0.381103520000124
-84.95661163,-121.39650726,0.381103520000124
-84.9892807,-121.35108948,0.381103520000124
-84.97818756,-121.35375977,0.381225590000213
-84.9788208,-121.36917114,0.381225590000213
-84.96334839,-121.40982819,0.381225590000213
-84.97924805,-121.36695099,0.381469730000163
-84.96150208,-121.40141296,0.381469730000163
-84.98101044,-121.35159302,0.381591800000024
-84.95276642,-121.35868073,0.381591800000024
-84.97808075,-121.39167786,0.381591800000024
-84.95574188,-121.39820862,0.381591800000024
-84.98660278,-121.44953918,0.381591800000024
-84.96253967,-121.44915009,0.381591800000024
-84.98935699,-121.37191772,0.381713870000112
-84.98135376,-121.37638855,0.381713870000112
-84.98526764,-121.36717224,0.381835940000201
-84.96839905,-121.40322113,0.381958010000062
-84.96730804,-121.40438843,0.381958010000062
-84.99546814,-121.35710144,0.382080080000151
-84.97232056,-121.37595367,0.382080080000151
-84.95365143,-121.37702179,0.382080080000151
-84.97923279,-121.43492126,0.382080080000151
-84.97091675,-121.37291718,0.382202150000012
-84.98774719,-121.36763,0.382202150000012
-84.97528076,-121.40200806,0.382202150000012
-84.96717072,-121.41591644,0.382202150000012
-84.95585632,-121.44185638,0.382202150000012
-84.97319031,-121.38137817,0.3823242200001
-84.9519577,-121.35237122,0.3823242200001
-84.99607849,-121.35749817,0.3823242200001
-84.98902893,-121.36096191,0.3823242200001
-84.97682953,-121.39511108,0.3823242200001
-84.98905182,-121.36723328,0.382446290000189
-84.98132324,-121.36662292,0.382446290000189
-84.95774078,-121.39862823,0.38256836000005
-84.97416687,-121.36889648,0.382690430000139
-84.95717621,-121.37191772,0.382690430000139
-84.98796844,-121.37140656,0.382690430000139
-84.98551941,-121.37071991,0.382690430000139
-84.96730804,-121.36904907,0.3828125
-84.97747803,-121.39340973,0.3828125
-84.98239136,-121.38021851,0.382934570000089
-84.97447205,-121.37650299,0.382934570000089
-84.96880341,-121.37255096,0.383178710000038
-84.97177124,-121.40249634,0.383300780000127
-84.95674896,-121.42008972,0.383300780000127
-84.97928619,-121.36723328,0.383422850000215
-84.96334839,-121.40109253,0.383422850000215
-84.95401764,-121.39974976,0.383422850000215
-84.98262024,-121.39859009,0.383544920000077
-84.95793152,-121.41681671,0.383544920000077
-84.96340942,-121.37493134,0.383667000000059
-84.99346924,-121.35605621,0.383789070000148
-84.95913696,-121.4005127,0.383789070000148
-84.97273254,-121.35949707,0.384033210000098
-84.98951721,-121.36177063,0.384033210000098
-84.98866272,-121.36321259,0.384033210000098
-84.97164917,-121.37541199,0.384033210000098
-84.98158264,-121.36717224,0.384155280000186
-84.97789001,-121.38999176,0.384155280000186
-84.98571777,-121.3753891,0.384277350000048
-84.95217133,-121.37365723,0.384277350000048
-84.97422791,-121.40345764,0.384277350000048
-84.96827698,-121.36519623,0.384399420000136
-84.95758057,-121.37023163,0.384399420000136
-84.97419739,-121.39743805,0.384399420000136
-84.96695709,-121.40664673,0.384399420000136
-84.96497345,-121.36894989,0.384521490000225
-84.98845673,-121.36595917,0.384521490000225
-84.96514893,-121.40099335,0.384521490000225
-84.96405792,-121.40843201,0.384521490000225
-84.9833374,-121.44431305,0.384521490000225
-84.97663879,-121.43048859,0.384521490000225
-84.96949005,-121.36979675,0.384643560000086
-84.97364807,-121.3615036,0.384887700000036
-84.99241638,-121.36351776,0.384887700000036
-84.95189667,-121.43582153,0.384887700000036
-84.96845245,-121.37467194,0.384887700000036
-84.95334625,-121.35484314,0.385009770000124
-84.95957947,-121.39855957,0.385009770000124
-84.97715759,-121.40170288,0.385253910000074
-84.98828125,-121.35677338,0.385253910000074
-84.99729919,-121.35864258,0.385375980000163
-84.990448,-121.36746979,0.385375980000163
-84.95027161,-121.37197113,0.385375980000163
-84.9609375,-121.37536621,0.385375980000163
-84.99156952,-121.36495972,0.385375980000163
-84.98760223,-121.36766052,0.385498050000024
-84.95565796,-121.38388062,0.385498050000024
-84.99894714,-121.37029266,0.385620120000112
-84.95915222,-121.37293243,0.385620120000112
-84.97038269,-121.41796875,0.385620120000112
-84.95731354,-121.4079895,0.385620120000112
-84.97332764,-121.39312744,0.385742190000201
-84.96739197,-121.40168762,0.385742190000201
-84.96433258,-121.40872192,0.385742190000201
-84.95110321,-121.35447693,0.385986330000151
-84.96655273,-121.40287781,0.385986330000151
-84.97486115,-121.38957977,0.386108400000012
-84.97286224,-121.38973999,0.386108400000012
-84.96186066,-121.40200806,0.386108400000012
-84.98229218,-121.44223785,0.386108400000012
-84.97579193,-121.42919159,0.3862304700001
-84.97973633,-121.35063934,0.386352540000189
-84.97846222,-121.35935974,0.386352540000189
-84.96434021,-121.40245819,0.386352540000189
-84.95237732,-121.43663025,0.386352540000189
-84.98403168,-121.39774323,0.386596680000139
-84.98751831,-121.3540802,0.386596680000139
-84.9981308,-121.35533142,0.387084960000038
-84.9697876,-121.36888123,0.387084960000038
-84.98027802,-121.38922119,0.387084960000038
-84.95754242,-121.37014008,0.387207030000127
-84.95133209,-121.35469818,0.387207030000127
-84.98390961,-121.37065887,0.387329100000215
-84.97319794,-121.39865875,0.387329100000215
-84.96212006,-121.40654755,0.387329100000215
-84.98049164,-121.3952179,0.387451170000077
-84.98539734,-121.39987183,0.387451170000077
-84.95258331,-121.41822052,0.387451170000077
-84.98258209,-121.37181091,0.387573250000059
-84.96546936,-121.40131378,0.387573250000059
-84.98471832,-121.37930298,0.387695320000148
-84.98222351,-121.37956238,0.387695320000148
-84.95491028,-121.44010925,0.387695320000148
-84.99510193,-121.35797882,0.387817390000009
-84.9727478,-121.40139008,0.387817390000009
-84.97796631,-121.3629303,0.387817390000009
-84.99272919,-121.35756683,0.387939460000098
-84.97653198,-121.43003082,0.387939460000098
-84.96482849,-121.40328217,0.388061530000186
-84.96820831,-121.4145813,0.388061530000186
-84.95587921,-121.38378143,0.388061530000186
-84.96080017,-121.37606049,0.388183600000048
-84.98916626,-121.35502625,0.388183600000048
-84.97767639,-121.40252686,0.388183600000048
-84.96431732,-121.39697266,0.388183600000048
-84.98143768,-121.4379425,0.388183600000048
-84.96022797,-121.39772797,0.388183600000048
-84.95384979,-121.35373688,0.388427740000225
-84.98988342,-121.36537933,0.388427740000225
-84.97606659,-121.39112854,0.388427740000225
-84.98439026,-121.37146759,0.388549810000086
-84.9781189,-121.39705658,0.388549810000086
-84.95812225,-121.39624023,0.388671880000174
-84.97956848,-121.3815918,0.388916020000124
-84.97502136,-121.38918304,0.388916020000124
-84.97280884,-121.38964081,0.388916020000124
-84.98596191,-121.44458008,0.388916020000124
-84.96130371,-121.40075684,0.389160160000074
-84.99040985,-121.35323334,0.389160160000074
-84.98596191,-121.36457825,0.389282230000163
-84.97901154,-121.39562988,0.389282230000163
-84.95404053,-121.4390564,0.389282230000163
-84.95539093,-121.35201263,0.389404300000024
-84.97839355,-121.40361023,0.389404300000024
-84.97663116,-121.40371704,0.389404300000024
-84.96101379,-121.4493866,0.389404300000024
-84.97355652,-121.39421844,0.389404300000024
-84.9987793,-121.36225128,0.389526370000112
-84.98793793,-121.36499023,0.389526370000112
-84.965271,-121.37819672,0.389526370000112
-84.9692688,-121.37016296,0.389648440000201
-84.96354675,-121.40093994,0.389648440000201
-84.9570694,-121.35430145,0.389770510000062
-84.98970032,-121.36512756,0.389892580000151
-84.96446228,-121.37037659,0.390014650000012
-84.97614288,-121.39742279,0.390014650000012
-84.96349335,-121.39543152,0.390014650000012
-84.96692657,-121.41249847,0.3901367200001
-84.95533752,-121.37071991,0.39038086000005
-84.97994232,-121.35076904,0.39038086000005
-84.95865631,-121.35133362,0.39038086000005
-84.99107361,-121.36373901,0.39038086000005
-84.95346832,-121.40248108,0.39038086000005
-84.9760437,-121.3855896,0.390502930000139
-84.99389648,-121.35643768,0.390502930000139
-84.95816803,-121.37574768,0.390625
-84.96289063,-121.40341187,0.390625
-84.98413849,-121.38031769,0.390747070000089
-84.96887207,-121.39762115,0.390747070000089
-84.97284698,-121.37268829,0.390991210000038
-84.99433136,-121.36055756,0.391113280000127
-84.97992706,-121.35849762,0.391113280000127
-84.98599243,-121.36486053,0.391113280000127
-84.99349976,-121.35868073,0.391235350000215
-84.99035645,-121.35717773,0.391357420000077
-84.97310638,-121.38871002,0.391601570000148
-84.96077728,-121.3855896,0.391601570000148
-84.96549225,-121.36678314,0.391723640000009
-84.96130371,-121.35437012,0.391723640000009
-84.96069336,-121.39674377,0.391723640000009
-84.97324371,-121.42230225,0.391723640000009
-84.99841309,-121.36300659,0.391845710000098
-84.98490143,-121.36628723,0.391845710000098
-84.96134186,-121.39478302,0.391845710000098
-84.95749664,-121.44389343,0.391845710000098
-84.97119904,-121.37094879,0.391967780000186
-84.95171356,-121.3742218,0.391967780000186
-84.95957947,-121.35330963,0.391967780000186
-84.98058319,-121.38535309,0.392089850000048
-84.97852325,-121.38526917,0.392089850000048
-84.98844147,-121.36280823,0.392089850000048
-84.97709656,-121.39552307,0.392089850000048
-84.96633911,-121.41123199,0.392089850000048
-84.99330139,-121.36168671,0.392211920000136
-84.96201324,-121.39283752,0.392333990000225
-84.95169067,-121.40937042,0.392333990000225
-84.99417877,-121.35373688,0.392456060000086
-84.98715973,-121.36647797,0.392456060000086
-84.98085785,-121.39256287,0.392456060000086
-84.96814728,-121.37734985,0.392456060000086
-84.96710968,-121.36844635,0.392578130000174
-84.97480011,-121.37477875,0.392578130000174
-84.95684814,-121.40155029,0.392700200000036
-84.96774292,-121.37521362,0.392822270000124
-84.95757294,-121.35321045,0.392944340000213
-84.97984314,-121.37042236,0.392944340000213
-84.99909973,-121.36026001,0.393188480000163
-84.9503479,-121.37139893,0.393188480000163
-84.96082306,-121.37509918,0.393188480000163
-84.98648834,-121.36894226,0.393188480000163
-84.95709229,-121.44338226,0.393310550000024
-84.96244049,-121.3693924,0.393432620000112
-84.97670746,-121.40103149,0.393432620000112
-84.97071075,-121.39755249,0.393432620000112
-84.97579956,-121.38577271,0.393554690000201
-84.97351074,-121.3870163,0.393554690000201
-84.95437622,-121.37361145,0.393554690000201
-84.99992371,-121.36544037,0.393676760000062
-84.95269012,-121.37037659,0.393676760000062
-84.95961761,-121.39190674,0.393676760000062
-84.95791626,-121.35745239,0.393798830000151
-84.99536133,-121.36161804,0.393798830000151
-84.98938751,-121.36090088,0.393798830000151
-84.97670746,-121.39476776,0.393798830000151
-84.97540283,-121.40193176,0.393798830000151
-84.96507263,-121.36728668,0.393920900000012
-84.95739746,-121.37832642,0.393920900000012
-84.98156738,-121.39363861,0.393920900000012
-84.97801971,-121.42948151,0.393920900000012
-84.98294067,-121.38452911,0.3940429700001
-84.97132111,-121.41892242,0.3940429700001
-84.96069336,-121.35678101,0.394165040000189
-84.96069336,-121.44893646,0.394165040000189
-84.96555328,-121.3991394,0.394165040000189
-84.99117279,-121.36390686,0.39428711000005
-84.95147705,-121.36702728,0.39428711000005
-84.9822998,-121.37164307,0.39428711000005
-84.9815979,-121.43502808,0.39428711000005
-84.97116852,-121.37085724,0.394409180000139
-84.97953033,-121.39224243,0.394409180000139
-84.97457886,-121.38240814,0.394653320000089
-84.97560883,-121.38993073,0.394653320000089
-84.9569931,-121.37149048,0.394775390000177
-84.98148346,-121.35568237,0.394775390000177
-84.95902252,-121.35420227,0.394775390000177
-84.98454285,-121.36881256,0.394775390000177
-84.95675659,-121.39044952,0.394775390000177
-84.96645355,-121.37029266,0.394897460000038
-84.96140289,-121.3888092,0.394897460000038
-84.96517944,-121.39186859,0.395019530000127
-84.97648621,-121.37560272,0.395141600000215
-84.95639038,-121.35785675,0.395141600000215
-84.95635223,-121.35910797,0.395141600000215
-84.97444153,-121.44277954,0.395141600000215
-84.99053955,-121.36602783,0.395141600000215
-84.9780426,-121.39112854,0.395141600000215
-84.97611237,-121.38488007,0.395263670000077
-84.98590088,-121.44465637,0.395263670000077
-84.98007965,-121.35236359,0.395385750000059
-84.9901123,-121.35314178,0.395385750000059
-84.95822906,-121.37503052,0.395629890000009
-84.9813385,-121.35964966,0.395629890000009
-84.97519684,-121.39868927,0.395629890000009
-84.97286987,-121.37172699,0.395751960000098
-84.97908783,-121.39063263,0.395751960000098
-84.98713684,-121.39687347,0.395751960000098
-84.96412659,-121.39279938,0.395751960000098
-84.96038818,-121.35771179,0.395874030000186
-84.98867035,-121.35085297,0.395874030000186
-84.99790192,-121.35579681,0.395996100000048
-84.97698212,-121.39028931,0.395996100000048
-84.98616028,-121.36469269,0.396118170000136
-84.97575378,-121.37085724,0.396240240000225
-84.96240234,-121.36929321,0.396240240000225
-84.95021057,-121.3551178,0.396240240000225
-84.99343872,-121.36386108,0.396484380000174
-84.96566772,-121.39267731,0.396484380000174
-84.95897675,-121.44608307,0.396484380000174
-84.98011017,-121.35883331,0.396606450000036
-84.95787811,-121.35761261,0.396606450000036
-84.95388794,-121.35748291,0.396606450000036
-84.99282837,-121.3662262,0.396606450000036
-84.99170685,-121.36765289,0.396606450000036
-84.97807312,-121.38813782,0.396606450000036
-84.95979309,-121.36904144,0.396728520000124
-84.95704651,-121.39074707,0.396728520000124
-84.96038818,-121.39929199,0.396728520000124
-84.99134064,-121.35568237,0.396728520000124
-84.9769516,-121.38156891,0.396850590000213
-84.97657013,-121.39781189,0.396850590000213
-84.97628784,-121.38851166,0.396972660000074
-84.97830963,-121.43005371,0.396972660000074
-84.98178101,-121.361763,0.396972660000074
-84.97650909,-121.3757782,0.397216800000024
-84.98729706,-121.36656189,0.397216800000024
-84.978302,-121.38540649,0.397216800000024
-84.95887756,-121.40437317,0.397216800000024
-84.98220062,-121.36766052,0.397338870000112
-84.95002747,-121.43585968,0.397460940000201
-84.96630859,-121.37097931,0.397583010000062
-84.97921753,-121.393013,0.397583010000062
-84.96195221,-121.38939667,0.397583010000062
-84.98454285,-121.39243317,0.397705080000151
-84.96639252,-121.39350891,0.397705080000151
-84.97052002,-121.37653351,0.397705080000151
-84.97930908,-121.40480804,0.397827150000012
-84.96713257,-121.40986633,0.397827150000012
-84.95970917,-121.38922882,0.3979492200001
-84.98686981,-121.36277008,0.398071290000189
-84.98948669,-121.36946869,0.39819336000005
-84.95136261,-121.36665344,0.39819336000005
-84.99349976,-121.36299896,0.3984375
-84.99285126,-121.3635025,0.3984375
-84.98509979,-121.36640167,0.398559570000089
-84.96022797,-121.39880371,0.398559570000089
-84.97126007,-121.37917328,0.398559570000089
-84.99041748,-121.36582184,0.398681640000177
-84.95072937,-121.4369278,0.398681640000177
-84.95198059,-121.41526794,0.398681640000177
-84.98400879,-121.36756897,0.398803710000038
-84.97039795,-121.36763,0.398803710000038
-84.96070862,-121.37297821,0.398803710000038
-84.98976898,-121.36778259,0.398925780000127
-84.97393036,-121.39386749,0.398925780000127
-84.98381805,-121.37007141,0.399047850000215
-84.96401978,-121.39234161,0.399047850000215
-84.97663116,-121.38256836,0.399169920000077
-84.97779846,-121.40545654,0.399169920000077
-84.97644043,-121.43569946,0.399169920000077
-84.98721313,-121.36836243,0.399292000000059
-84.97505188,-121.38292694,0.399292000000059
-84.95543671,-121.36907959,0.399414070000148
-84.97801208,-121.39971161,0.399414070000148
-84.97463989,-121.43005371,0.399780280000186
-84.95841217,-121.44508362,0.399780280000186
-84.96244812,-121.40315247,0.399780280000186
-84.96868896,-121.37142181,0.399902350000048
-84.96263123,-121.35665131,0.399902350000048
-84.96563721,-121.40727997,0.399902350000048
-84.97486115,-121.42730713,0.399902350000048
-84.97158813,-121.38239288,0.399902350000048
-84.96092987,-121.36483765,0.400024420000136
-84.9917984,-121.36470032,0.400146490000225
-84.97160339,-121.4017334,0.400146490000225
-84.97667694,-121.39887238,0.400268560000086
-84.98191833,-121.35575867,0.400268560000086
-84.98262787,-121.3912735,0.400390630000174
-84.9764328,-121.39151001,0.400512700000036
-84.97457123,-121.39853668,0.400512700000036
-84.99331665,-121.36155701,0.400634770000124
-84.98383331,-121.36734009,0.400634770000124
-84.96517944,-121.39421082,0.400634770000124
-84.98809052,-121.3653183,0.400756840000213
-84.9626236,-121.37545776,0.400756840000213
-84.97425842,-121.40319824,0.400756840000213
-84.98316193,-121.36327362,0.400878910000074
-84.96790314,-121.41072845,0.400878910000074
-84.95812225,-121.40722656,0.400878910000074
-84.98020935,-121.39463806,0.401000980000163
-84.9786911,-121.39478302,0.401000980000163
-84.96906281,-121.41533661,0.401245120000112
-84.98011017,-121.3735733,0.401367190000201
-84.96550751,-121.371521,0.401367190000201
-84.97962189,-121.36701965,0.401489260000062
-84.98268127,-121.377388,0.401611330000151
-84.97927856,-121.35964203,0.401611330000151
-84.96309662,-121.3568573,0.401611330000151
-84.9829483,-121.39511871,0.401611330000151
-84.97271729,-121.42967987,0.401611330000151
-84.97615814,-121.3841095,0.401733400000012
-84.98544312,-121.36974335,0.401733400000012
-84.97808075,-121.396492,0.401733400000012
-84.98480225,-121.44844055,0.401733400000012
-84.97028351,-121.37304688,0.401977540000189
-84.98168182,-121.40831757,0.401977540000189
-84.99713135,-121.35726166,0.40209961000005
-84.96447754,-121.37705994,0.40209961000005
-84.98287201,-121.35649109,0.40209961000005
-84.99163055,-121.36446381,0.402221680000139
-84.98013306,-121.37866211,0.40234375
-84.99269104,-121.35426331,0.40234375
-84.98430634,-121.36514282,0.40234375
-84.98188782,-121.37046814,0.40234375
-84.96053314,-121.39337158,0.40234375
-84.9834137,-121.36106873,0.402465820000089
-84.96109772,-121.35675812,0.402587890000177
-84.98612213,-121.36453247,0.402587890000177
-84.99162292,-121.3614502,0.402709960000038
-84.9896698,-121.3673172,0.402709960000038
-84.95855713,-121.39296722,0.402709960000038
-84.96051025,-121.44828796,0.402709960000038
-84.9938736,-121.36122131,0.402954100000215
-84.96787262,-121.37377167,0.402954100000215
-84.98744965,-121.37016296,0.402954100000215
-84.97969818,-121.36979675,0.402954100000215
-84.97516632,-121.37940979,0.403076170000077
-84.95826721,-121.35890961,0.403198250000059
-84.95111847,-121.35566711,0.403198250000059
-84.97693634,-121.38056183,0.403320320000148
-84.98101807,-121.35913849,0.403442390000009
-84.98989105,-121.36483765,0.403442390000009
-84.97902679,-121.39785004,0.403442390000009
-84.98239136,-121.40940094,0.403442390000009
-84.9651413,-121.37509918,0.403442390000009
-84.97615051,-121.40589905,0.403686530000186
-84.9834671,-121.36685181,0.403808600000048
-84.96035767,-121.39286804,0.403808600000048
-84.95144653,-121.41525269,0.403930670000136
-84.99363708,-121.35562134,0.404052740000225
-84.97731781,-121.36862946,0.404052740000225
-84.96501923,-121.37481689,0.404174810000086
-84.9699707,-121.4016571,0.404174810000086
-84.98156738,-121.35807037,0.404174810000086
-84.9872818,-121.3664093,0.404296880000174
-84.96201324,-121.35874176,0.404418950000036
-84.99456024,-121.35996246,0.404418950000036
-84.96427155,-121.41049957,0.404418950000036
-84.9895401,-121.35302734,0.404418950000036
-84.96156311,-121.37909698,0.404541020000124
-84.98592377,-121.39990997,0.404541020000124
-84.97373962,-121.40496826,0.404541020000124
-84.95704651,-121.39061737,0.404541020000124
-84.98187256,-121.37973785,0.404663090000213
-84.98773193,-121.37046051,0.404663090000213
-84.98017883,-121.37779236,0.404785160000074
-84.98117065,-121.35408783,0.404785160000074
-84.96086121,-121.39969635,0.404785160000074
-84.96098328,-121.35944366,0.404907230000163
-84.99327087,-121.36387634,0.404907230000163
-84.98751831,-121.36367798,0.405029300000024
-84.96543121,-121.41837311,0.405029300000024
-84.96822357,-121.40145111,0.405029300000024
-84.99948883,-121.35765839,0.405395510000062
-84.99397278,-121.36058807,0.405395510000062
-84.98592377,-121.37223053,0.405517580000151
-84.9888382,-121.36303711,0.405517580000151
-84.98710632,-121.36591339,0.405517580000151
-84.9591217,-121.39981842,0.405517580000151
-84.98352051,-121.44387817,0.405517580000151
-84.99416351,-121.36244965,0.405639650000012
-84.98191071,-121.39710236,0.405639650000012
-84.97025299,-121.40194702,0.405639650000012
-84.9600296,-121.4074173,0.405639650000012
-84.98879242,-121.35034943,0.405639650000012
-84.99324799,-121.3548584,0.4057617200001
-84.96511078,-121.40531158,0.405883790000189
-84.96720123,-121.37557983,0.40600586000005
-84.99371338,-121.35865784,0.40600586000005
-84.98618317,-121.40045166,0.40600586000005
-84.9748764,-121.40383148,0.40600586000005
-84.97595215,-121.43174744,0.40600586000005
-84.95207214,-121.37155914,0.406127930000139
-84.99329376,-121.364151,0.406127930000139
-84.98796082,-121.40035248,0.406372070000089
-84.97200775,-121.40209961,0.406372070000089
-84.96556854,-121.37470245,0.406372070000089
-84.97846985,-121.40939331,0.406494140000177
-84.95320892,-121.44049835,0.406494140000177
-84.97588348,-121.35066986,0.406494140000177
-84.95982361,-121.3821106,0.406494140000177
-84.99006653,-121.36647034,0.406616210000038
-84.97476959,-121.37271118,0.406616210000038
-84.95748901,-121.35852051,0.406616210000038
-84.99176788,-121.3645401,0.406616210000038
-84.98222351,-121.40641785,0.406738280000127
-84.99507141,-121.36405182,0.406860350000215
-84.98890686,-121.36907959,0.406860350000215
-84.98264313,-121.39792633,0.406860350000215
-84.97953796,-121.39592743,0.406982420000077
-84.99980164,-121.35675812,0.407104500000059
-84.95868683,-121.39630127,0.407104500000059
-84.98957825,-121.36386871,0.407226570000148
-84.99555206,-121.36132813,0.407348640000009
-84.98636627,-121.37078094,0.407470710000098
-84.98158264,-121.37969971,0.407470710000098
-84.97554016,-121.38503265,0.407470710000098
-84.95831299,-121.40454865,0.407470710000098
-84.96035767,-121.37464142,0.407714850000048
-84.98005676,-121.39924622,0.407958990000225
-84.95893097,-121.39356995,0.407958990000225
-84.96124268,-121.40905762,0.408081060000086
-84.98181915,-121.38844299,0.408081060000086
-84.97205353,-121.37320709,0.408325200000036
-84.99250793,-121.3653717,0.408325200000036
-84.95474243,-121.3927536,0.408325200000036
-84.98898315,-121.36885834,0.408447270000124
-84.98519897,-121.44606018,0.408447270000124
-84.98401642,-121.39705658,0.408569340000213
-84.95282745,-121.43975067,0.408569340000213
-84.98571014,-121.39025116,0.408935550000024
-84.9885025,-121.36231232,0.409057620000112
-84.96144104,-121.40615845,0.409057620000112
-84.96988678,-121.40148163,0.409179690000201
-84.97477722,-121.37286377,0.409301760000062
-84.9647522,-121.37493896,0.409301760000062
-84.96975708,-121.41928101,0.409423830000151
-84.95839691,-121.37267303,0.409545900000012
-84.97374725,-121.39981842,0.409545900000012
-84.98155212,-121.37962341,0.4096679700001
-84.95098877,-121.38996124,0.4096679700001
-84.95848083,-121.44497681,0.409790040000189
-84.98323059,-121.41081238,0.40991211000005
-84.96478271,-121.3965683,0.40991211000005
-84.9542923,-121.38947296,0.40991211000005
-84.98378754,-121.39363098,0.410034180000139
-84.9552536,-121.39658356,0.41015625
-84.96484375,-121.375,0.41015625
-84.99653625,-121.36270905,0.410278320000089
-84.96212006,-121.39536285,0.410278320000089
-84.99452972,-121.3628006,0.410400390000177
-84.98342133,-121.3957901,0.410400390000177
-84.95041656,-121.43608093,0.410400390000177
-84.98770142,-121.36678314,0.410522460000038
-84.95986176,-121.36746979,0.410644530000127
-84.95796967,-121.40055847,0.410766600000215
-84.97206116,-121.42249298,0.410766600000215
-84.98429871,-121.3943634,0.410888670000077
-84.96015167,-121.3952179,0.410888670000077
-84.96144104,-121.40892029,0.410888670000077
-84.97879791,-121.38243103,0.411010750000059
-84.95594025,-121.39463806,0.411254890000009
-84.97460938,-121.37332153,0.411376960000098
-84.95546722,-121.39109802,0.411499030000186
-84.98171234,-121.37924957,0.411621100000048
-84.95906067,-121.37960815,0.411621100000048
-84.96687317,-121.35018158,0.411621100000048
-84.96169281,-121.3775177,0.411743170000136
-84.99195099,-121.37065125,0.411743170000136
-84.99205017,-121.36636353,0.411865240000225
-84.98190308,-121.39969635,0.411865240000225
-84.9745636,-121.4262085,0.411865240000225
-84.98574066,-121.36991119,0.411987310000086
-84.98236084,-121.39396667,0.411987310000086
-84.98885345,-121.36161041,0.412109380000174
-84.95796204,-121.39481354,0.412109380000174
-84.95864105,-121.39888,0.412109380000174
-84.97836304,-121.43553925,0.412109380000174
-84.97585297,-121.38426971,0.412231450000036
-84.99105072,-121.36306,0.412231450000036
-84.95540619,-121.44026184,0.412231450000036
-84.95025635,-121.43559265,0.412231450000036
-84.98155212,-121.3911972,0.412231450000036
-84.99923706,-121.3579483,0.412353520000124
-84.96389008,-121.37831879,0.412353520000124
-84.98451996,-121.39214325,0.412353520000124
-84.97093964,-121.41815948,0.412353520000124
-84.96685028,-121.40003204,0.412597660000074
-84.96375275,-121.38430023,0.412597660000074
-84.96092224,-121.40618134,0.412597660000074
-84.97261047,-121.3711319,0.412719730000163
-84.98396301,-121.40263367,0.412719730000163
-84.98351288,-121.40837097,0.412719730000163
-84.96269226,-121.40522766,0.412841800000024
-84.97825623,-121.36508942,0.412841800000024
-84.98436737,-121.40065765,0.412963870000112
-84.95587158,-121.3829422,0.412963870000112
-84.98439789,-121.39716339,0.413085940000201
-84.98732758,-121.36930084,0.413208010000062
-84.96661377,-121.37670135,0.413330080000151
-84.95751953,-121.36734009,0.413330080000151
-84.97519684,-121.40225983,0.413330080000151
-84.98840332,-121.37216949,0.413452150000012
-84.96292114,-121.39923096,0.413452150000012
-84.97840118,-121.43556976,0.4135742200001
-84.99241638,-121.36218262,0.413696290000189
-84.98959351,-121.36947632,0.413696290000189
-84.97766113,-121.38562775,0.41381836000005
-84.97648621,-121.38127136,0.413940430000139
-84.96833801,-121.3788681,0.413940430000139
-84.95548248,-121.44004059,0.413940430000139
-84.98195648,-121.37808228,0.4140625
-84.98445129,-121.40972137,0.4140625
-84.96781158,-121.40113068,0.4140625
-84.9886322,-121.35932922,0.4140625
-84.98531342,-121.40200806,0.414184570000089
-84.98246002,-121.44165802,0.414184570000089
-84.98638153,-121.39156342,0.414306640000177
-84.97380066,-121.40161133,0.414306640000177
-84.97003937,-121.37236023,0.414428710000038
-84.95007324,-121.35327148,0.414428710000038
-84.99285126,-121.36022186,0.414428710000038
-84.98343658,-121.38031006,0.414672850000215
-84.98335266,-121.40161133,0.414794920000077
-84.95329285,-121.41719818,0.414794920000077
-84.9786911,-121.38204956,0.414917000000059
-84.96315765,-121.39676666,0.414917000000059
-84.95948792,-121.37918091,0.414917000000059
-84.96704102,-121.41462708,0.415039070000148
-84.99915314,-121.35761261,0.415161140000009
-84.98312378,-121.39508057,0.415161140000009
-84.98876953,-121.35597229,0.415161140000009
-84.97541046,-121.36994171,0.415283210000098
-84.96705627,-121.37525177,0.415283210000098
-84.9881897,-121.39447784,0.415283210000098
-84.98561096,-121.36969757,0.415283210000098
-84.98384857,-121.36981201,0.415283210000098
-84.96118164,-121.3966217,0.415283210000098
-84.9667511,-121.40232086,0.415283210000098
-84.99095154,-121.36978149,0.415405280000186
-84.96589661,-121.41002655,0.415405280000186
-84.98227692,-121.40278625,0.415527350000048
-84.9673996,-121.40061951,0.415527350000048
-84.98464203,-121.39195251,0.415649420000136
-84.98487854,-121.3952179,0.415649420000136
-84.98475647,-121.37564087,0.415771490000225
-84.95941925,-121.37783813,0.415771490000225
-84.95462036,-121.43898773,0.415771490000225
-84.95806122,-121.38246918,0.415771490000225
-84.95729828,-121.37622833,0.415893560000086
-84.96230316,-121.4017334,0.415893560000086
-84.96469116,-121.37494659,0.416015630000174
-84.99266815,-121.35997772,0.416015630000174
-84.9796524,-121.40460205,0.416137700000036
-84.9733963,-121.40110016,0.416137700000036
-84.97576904,-121.3754425,0.416381840000213
-84.9907608,-121.37162018,0.416381840000213
-84.95732117,-121.44322968,0.416381840000213
-84.96975708,-121.37013245,0.416381840000213
-84.9822998,-121.40606689,0.416503910000074
-84.97531891,-121.36579895,0.416503910000074
-84.98426819,-121.39694977,0.416625980000163
-84.96697235,-121.39684296,0.416625980000163
-84.96379852,-121.37503815,0.416625980000163
-84.96212006,-121.39797211,0.416748050000024
-84.95487976,-121.36953735,0.416870120000112
-84.96938324,-121.37419128,0.416992190000201
-84.98074341,-121.39743042,0.416992190000201
-84.98188782,-121.40830231,0.416992190000201
-84.98680878,-121.37696075,0.417114260000062
-84.98271942,-121.39784241,0.417114260000062
-84.96643066,-121.41361237,0.417114260000062
-84.9560318,-121.372612,0.417236330000151
-84.99939728,-121.35645294,0.417358400000012
-84.95217896,-121.37007904,0.417358400000012
-84.98737335,-121.39293671,0.417358400000012
-84.98191071,-121.4017868,0.417358400000012
-84.9881134,-121.35935211,0.4174804700001
-84.98406219,-121.39369202,0.417602540000189
-84.96569061,-121.40077209,0.417602540000189
-84.96351624,-121.40611267,0.417602540000189
-84.96440125,-121.35736847,0.41796875
-84.98635864,-121.3707962,0.41796875
-84.98587799,-121.39000702,0.41796875
-84.96273041,-121.38716125,0.41796875
-84.97679901,-121.37184143,0.418090820000089
-84.96697235,-121.37490845,0.418090820000089
-84.96195221,-121.35578918,0.418090820000089
-84.99694824,-121.36060333,0.418090820000089
-84.98432159,-121.39697266,0.418090820000089
-84.98303986,-121.41015625,0.418090820000089
-84.97634125,-121.38189697,0.418212890000177
-84.98053741,-121.39717865,0.418212890000177
-84.98323822,-121.40766907,0.418212890000177
-84.97615051,-121.40209961,0.418212890000177
-84.96800995,-121.41625977,0.418212890000177
-84.9805603,-121.43554688,0.418334960000038
-84.9569397,-121.44246674,0.418334960000038
-84.96466064,-121.37486267,0.418457030000127
-84.95683289,-121.37776184,0.418457030000127
-84.9912262,-121.36641693,0.418457030000127
-84.97102356,-121.39718628,0.418457030000127
-84.98155975,-121.36383057,0.418579100000215
-84.98209381,-121.39681244,0.418701170000077
-84.96502686,-121.39370728,0.418701170000077
-84.96730042,-121.40316772,0.418701170000077
-84.99082184,-121.36865234,0.418823250000059
-84.98504639,-121.44242859,0.418823250000059
-84.95655823,-121.3826828,0.418823250000059
-84.98018646,-121.40844727,0.419067390000009
-84.97769928,-121.37621307,0.419189460000098
-84.99571228,-121.36728668,0.419311530000186
-84.98664093,-121.36457062,0.419311530000186
-84.96874237,-121.41708374,0.419433600000048
-84.96954346,-121.37380219,0.419555670000136
-84.98866272,-121.44799805,0.419555670000136
-84.96295166,-121.38427734,0.419555670000136
-84.96452332,-121.37763214,0.419677740000225
-84.96692657,-121.40718842,0.419677740000225
-84.98548126,-121.39884186,0.419799810000086
-84.96466064,-121.40196991,0.419799810000086
-84.96109772,-121.39942932,0.419799810000086
-84.98748016,-121.39900208,0.419921880000174
-84.98104095,-121.39798737,0.419921880000174
-84.96729279,-121.38575745,0.419921880000174
-84.99546814,-121.36099243,0.420166020000124
-84.9884491,-121.36747742,0.420166020000124
-84.98288727,-121.40968323,0.420166020000124
-84.96045685,-121.40139771,0.420166020000124
-84.95082092,-121.41497803,0.420166020000124
-84.95635223,-121.44120026,0.420410160000074
-84.97532654,-121.36975861,0.420532230000163
-84.95269012,-121.35516357,0.420532230000163
-84.97466278,-121.402771,0.420532230000163
-84.98792267,-121.35015106,0.420532230000163
-84.98708344,-121.40123749,0.420654300000024
-84.98423767,-121.36048889,0.420776370000112
-84.98822784,-121.36421967,0.421020510000062
-84.97824097,-121.37397766,0.421142580000151
-84.97779846,-121.40453339,0.421142580000151
-84.97846985,-121.40885162,0.421264650000012
-84.9597168,-121.44650269,0.421264650000012
-84.95063782,-121.37509155,0.421508790000189
-84.98288727,-121.40693665,0.421508790000189
-84.96092987,-121.40219879,0.421508790000189
-84.96209717,-121.38108063,0.421508790000189
-84.96668243,-121.39614105,0.42163086000005
-84.96675873,-121.41118622,0.42163086000005
-84.98535156,-121.44300079,0.421752930000139
-84.99655151,-121.35764313,0.421875
-84.9522171,-121.37782288,0.421875
-84.98330688,-121.35910797,0.421875
-84.98780823,-121.36670685,0.421997070000089
-84.96980286,-121.39813995,0.421997070000089
-84.96887207,-121.37563324,0.422119140000177
-84.99462891,-121.3629837,0.422119140000177
-84.95365143,-121.35562897,0.422241210000038
-84.97431946,-121.38670349,0.422241210000038
-84.97936249,-121.3644104,0.422363280000127
-84.9879837,-121.38034058,0.422485350000215
