"X","Y","Z"
-85.06976318,-121.28572083,0.250122070000089
-85.06932831,-121.326828,0.250122070000089
-85.06449127,-121.32552338,0.250122070000089
-85.09332275,-121.30776978,0.25024413999995
-85.09322357,-121.32295227,0.25024413999995
-85.10240173,-121.31456757,0.250366210000038
-85.05397034,-121.27092743,0.250732420000077
-85.09237671,-121.3020401,0.251220699999976
-85.10093689,-121.31252289,0.251464839999926
-85.08022308,-121.31967926,0.251464839999926
-85.08287811,-121.30531311,0.251586910000015
-85.0921936,-121.32714844,0.251708980000103
-85.07956696,-121.32164001,0.251708980000103
-85.07691956,-121.30056,0.251708980000103
-85.05783081,-121.32112122,0.251708980000103
-85.07739258,-121.32398224,0.251953120000053
-85.09911346,-121.31108856,0.252197260000003
-85.08822632,-121.32333374,0.252197260000003
-85.06906128,-121.32411957,0.252197260000003
-85.06468201,-121.32798004,0.252197260000003
-85.0906601,-121.3212738,0.252319339999985
-85.06388855,-121.32228088,0.252319339999985
-85.06723785,-121.32569885,0.252441410000074
-85.08287811,-121.30809021,0.252441410000074
-85.08379364,-121.31729889,0.252929689999974
-85.06347656,-121.27792358,0.253051760000062
-85.06790924,-121.32048798,0.253051760000062
-85.09255981,-121.31034851,0.253540039999962
-85.10128784,-121.31057739,0.25366211000005
-85.09158325,-121.32286835,0.253784180000139
-85.0655365,-121.31887817,0.253784180000139
-85.09916687,-121.3102417,0.25390625
-85.08872986,-121.32415009,0.25390625
-85.07035065,-121.3249588,0.25390625
-85.07637787,-121.28855896,0.254028320000089
-85.08827972,-121.30986023,0.254028320000089
-85.06845093,-121.32087708,0.254028320000089
-85.08672333,-121.3114624,0.254394530000127
-85.10198212,-121.30783081,0.254882810000026
-85.08986664,-121.32601166,0.255126949999976
-85.10704041,-121.32235718,0.255249020000065
-85.08402252,-121.29176331,0.255371089999926
-85.07248688,-121.28463745,0.255371089999926
-85.07759857,-121.28904724,0.255493160000015
-85.09165192,-121.32591248,0.255493160000015
-85.08078766,-121.32681274,0.255615230000103
-85.07584381,-121.29482269,0.255615230000103
-85.08054352,-121.32016754,0.255737299999964
-85.09207916,-121.32369232,0.255859370000053
-85.06465149,-121.32510376,0.255859370000053
-85.10443115,-121.31596375,0.256225589999985
-85.10443878,-121.32463837,0.256225589999985
-85.07060242,-121.3201828,0.256347660000074
-85.10292053,-121.31243134,0.256469729999935
-85.07861328,-121.28829193,0.256713870000112
-85.06186676,-121.3197403,0.256713870000112
-85.06743622,-121.27767181,0.256835939999974
-85.08270264,-121.31411743,0.256835939999974
-85.06876373,-121.31160736,0.256835939999974
-85.10189819,-121.30751038,0.257080080000151
-85.10035706,-121.30500793,0.257202150000012
-85.09633636,-121.31147003,0.257202150000012
-85.06600952,-121.27536011,0.257202150000012
-85.0879364,-121.32263184,0.257202150000012
-85.08217621,-121.32267761,0.2573242200001
-85.09089661,-121.30619049,0.25756836000005
-85.08017731,-121.32579041,0.25756836000005
-85.08609772,-121.31601715,0.25756836000005
-85.05283356,-121.26490021,0.257690430000139
-85.08679962,-121.30223846,0.2578125
-85.08114624,-121.30574036,0.2578125
-85.08528137,-121.2950592,0.257934570000089
-85.10491943,-121.31349182,0.25805663999995
-85.08817291,-121.29405975,0.258300780000127
-85.07823181,-121.32540131,0.258422849999988
-85.08132172,-121.32765198,0.258544920000077
-85.05426025,-121.31295776,0.258789060000026
-85.08756256,-121.3218689,0.258911130000115
-85.08618927,-121.29296875,0.259033199999976
-85.09150696,-121.32269287,0.259033199999976
-85.09687805,-121.30922699,0.259277339999926
-85.08905792,-121.31246948,0.259277339999926
-85.08200836,-121.31919098,0.259399410000015
-85.10273743,-121.31285858,0.259521480000103
-85.06970978,-121.27639771,0.259521480000103
-85.10002899,-121.30600739,0.259765620000053
-85.07852936,-121.32543945,0.259887690000141
-85.08117676,-121.32364655,0.260131839999985
-85.1055069,-121.31149292,0.260253910000074
-85.09417725,-121.31102753,0.260375979999935
-85.08891296,-121.32125092,0.260620120000112
-85.08995819,-121.31497955,0.260620120000112
-85.0831604,-121.3243103,0.260742189999974
-85.079422,-121.28492737,0.260864260000062
-85.08336639,-121.32157135,0.260864260000062
-85.08142853,-121.32418823,0.261352539999962
-85.09467316,-121.32498169,0.26147461000005
-85.10043335,-121.30431366,0.26171875
-85.10636139,-121.31687927,0.26171875
-85.09487152,-121.30828094,0.26171875
-85.08274841,-121.3170166,0.26171875
-85.07788849,-121.32466888,0.26171875
-85.09046936,-121.31136322,0.261840820000089
-85.09626007,-121.31128693,0.262207030000127
-85.07946014,-121.32404327,0.262207030000127
-85.10533905,-121.31195831,0.262329099999988
-85.09053802,-121.30711365,0.262451170000077
-85.09052277,-121.32064819,0.262451170000077
-85.08188629,-121.32198334,0.262573239999938
-85.05735779,-121.2701416,0.262695310000026
-85.08215332,-121.32527161,0.263061520000065
-85.08580017,-121.3131485,0.263061520000065
-85.08737183,-121.3065033,0.263183589999926
-85.07749939,-121.32391357,0.263427730000103
-85.09647369,-121.30992126,0.263549799999964
-85.05239868,-121.26844788,0.263549799999964
-85.09182739,-121.31726074,0.263671870000053
-85.08965302,-121.32260895,0.263671870000053
-85.06082916,-121.27097321,0.263793940000141
-85.08760834,-121.30062866,0.263793940000141
-85.09011841,-121.31989288,0.263916010000003
-85.0914917,-121.31297302,0.264160160000074
-85.0830307,-121.32083893,0.264160160000074
-85.05536652,-121.32737732,0.264160160000074
-85.10562897,-121.30977631,0.264282229999935
-85.08963776,-121.30055237,0.264282229999935
-85.08262634,-121.32608032,0.264282229999935
-85.11473846,-121.32781219,0.264526370000112
-85.08630371,-121.28753662,0.264526370000112
-85.10207367,-121.30615234,0.264770510000062
-85.0927124,-121.30783844,0.264770510000062
-85.10726166,-121.31273651,0.264892580000151
-85.09401703,-121.31165314,0.264892580000151
-85.06575775,-121.27259827,0.264892580000151
-85.07063293,-121.32328033,0.264892580000151
-85.08467865,-121.30161285,0.265014650000012
-85.08846283,-121.28768921,0.265258789999962
-85.09938049,-121.30796814,0.26538086000005
-85.08953094,-121.28810883,0.26538086000005
-85.0901413,-121.32343292,0.26538086000005
-85.08352661,-121.32466125,0.265502930000139
-85.08264923,-121.32634735,0.265502930000139
-85.11195374,-121.31198883,0.265625
-85.09020233,-121.31967163,0.265625
-85.10350037,-121.30940247,0.265747070000089
-85.08307648,-121.32086945,0.26586913999995
-85.08509064,-121.31777191,0.266113280000127
-85.08379364,-121.31842041,0.266113280000127
-85.10819244,-121.30866241,0.266235349999988
-85.08860016,-121.29119873,0.266357420000077
-85.08357239,-121.33094788,0.266479489999938
-85.10939026,-121.31197357,0.266601560000026
-85.09259033,-121.318367,0.266601560000026
-85.10193634,-121.30686951,0.266845699999976
-85.10424042,-121.30561829,0.267089839999926
-85.1051178,-121.31233215,0.267089839999926
-85.09378052,-121.31185913,0.267333980000103
-85.09113312,-121.3212738,0.267333980000103
-85.08535004,-121.30117798,0.267578120000053
-85.07556915,-121.31568909,0.267578120000053
-85.09712982,-121.30706787,0.267700190000141
-85.0941391,-121.31173706,0.267700190000141
-85.08911896,-121.32137299,0.267700190000141
-85.07633209,-121.32463074,0.267700190000141
-85.0749588,-121.32602692,0.267822260000003
-85.06536102,-121.27623749,0.267944339999985
-85.08094788,-121.32324219,0.267944339999985
-85.08113861,-121.31774139,0.267944339999985
-85.09130096,-121.30976868,0.268310550000024
-85.10076141,-121.30245209,0.268432620000112
-85.09578705,-121.31990051,0.268554689999974
-85.08408356,-121.32524872,0.268554689999974
-85.10752869,-121.31047821,0.2690429700001
-85.09642029,-121.31520081,0.2690429700001
-85.09422302,-121.31452179,0.269165039999962
-85.09139252,-121.32182312,0.269165039999962
-85.09438324,-121.30986786,0.26928711000005
-85.08300781,-121.32643127,0.26928711000005
-85.08618927,-121.30988312,0.26928711000005
-85.10906219,-121.31295776,0.269409180000139
-85.08538818,-121.30417633,0.269409180000139
-85.08695984,-121.31771851,0.26953125
-85.06490326,-121.27440643,0.269653320000089
-85.09577179,-121.3108902,0.269653320000089
-85.07053375,-121.27809143,0.269897460000038
-85.1118927,-121.31182861,0.270141599999988
-85.09564972,-121.30496979,0.270385739999938
-85.09381104,-121.31401062,0.270629880000115
-85.0836792,-121.32148743,0.270629880000115
-85.07926941,-121.30272675,0.270751949999976
-85.09536743,-121.31337738,0.270874020000065
-85.08370972,-121.32776642,0.270996089999926
-85.11431885,-121.31128693,0.271118160000015
-85.05606079,-121.32988739,0.271118160000015
-85.08809662,-121.31983948,0.271240230000103
-85.09451294,-121.3213501,0.271484370000053
-85.08738708,-121.29714966,0.271484370000053
-85.09477997,-121.3041687,0.271728510000003
-85.0969696,-121.31903839,0.271972660000074
-85.09738922,-121.30606842,0.272216800000024
-85.08795166,-121.3190918,0.272460939999974
-85.10704041,-121.30457306,0.272583010000062
-85.082901,-121.28141022,0.272583010000062
-85.08065033,-121.28159332,0.272583010000062
-85.10299683,-121.30973816,0.272705080000151
-85.08972168,-121.31897736,0.272705080000151
-85.07937622,-121.28204346,0.272827150000012
-85.07743835,-121.31217194,0.2729492200001
-85.09169006,-121.31182098,0.273071289999962
-85.06838226,-121.27390289,0.2734375
-85.05277252,-121.3217926,0.2734375
-85.09719086,-121.3168335,0.273559570000089
-85.10025024,-121.30388641,0.27368163999995
-85.09107971,-121.3181076,0.273925780000127
-85.10404205,-121.30615234,0.274047849999988
-85.08730316,-121.3183136,0.274047849999988
-85.08204651,-121.32141113,0.274169920000077
-85.09792328,-121.31414032,0.274291989999938
-85.10063171,-121.31067657,0.274414060000026
-85.07518005,-121.27958679,0.274658199999976
-85.08181763,-121.31813812,0.274658199999976
-85.05509186,-121.33023834,0.274658199999976
-85.09307861,-121.3217926,0.274780270000065
-85.10906219,-121.30457306,0.274902339999926
-85.08029938,-121.28373718,0.275146480000103
-85.09261322,-121.3182373,0.275146480000103
-85.0875473,-121.29398346,0.275146480000103
-85.09203339,-121.30986786,0.275268549999964
-85.09664154,-121.32131958,0.275268549999964
-85.07893372,-121.32318878,0.275268549999964
-85.1113205,-121.3130188,0.275390620000053
-85.09134674,-121.3216629,0.275390620000053
-85.08957672,-121.32176971,0.275390620000053
-85.10237885,-121.30439758,0.275512690000141
-85.07829285,-121.3186264,0.275512690000141
-85.06716156,-121.32952118,0.275512690000141
-85.10060883,-121.30935669,0.276000979999935
-85.09310913,-121.31880188,0.276367189999974
-85.08032227,-121.31880188,0.276489260000062
-85.07878876,-121.31919098,0.276733400000012
-85.09741211,-121.30512238,0.276977539999962
-85.11302948,-121.31516266,0.27709961000005
-85.05274963,-121.26051331,0.27734375
-85.09577179,-121.31401062,0.27734375
-85.09468842,-121.31493378,0.27734375
-85.09403229,-121.31713867,0.27758788999995
-85.08699036,-121.31733704,0.27758788999995
-85.0923996,-121.29277039,0.277709960000038
-85.11797333,-121.31436157,0.277832030000127
-85.09403229,-121.32039642,0.277832030000127
-85.08545685,-121.28556824,0.277954099999988
-85.07969666,-121.32077789,0.277954099999988
-85.0923233,-121.30473328,0.277954099999988
-85.06749725,-121.31490326,0.277954099999988
-85.10974121,-121.30915833,0.278076170000077
-85.10001373,-121.3050766,0.278198239999938
-85.10565948,-121.30921936,0.278442380000115
-85.11412048,-121.3192215,0.278442380000115
-85.09432983,-121.3087616,0.278564449999976
-85.10141754,-121.30728149,0.278808589999926
-85.08663177,-121.31934357,0.279052730000103
-85.09275055,-121.31479645,0.279174799999964
-85.08946991,-121.3183136,0.279174799999964
-85.10410309,-121.30542755,0.279296870000053
-85.09931183,-121.30693054,0.279296870000053
-85.10865021,-121.30523682,0.279663089999985
-85.08573151,-121.28452301,0.279663089999985
-85.11831665,-121.31242371,0.279785160000074
-85.08863831,-121.30003357,0.279785160000074
-85.09506989,-121.30625153,0.279907229999935
-85.09941101,-121.30380249,0.279907229999935
-85.07801056,-121.31767273,0.280029300000024
-85.09072113,-121.30854034,0.280029300000024
-85.09123993,-121.31845856,0.280151370000112
-85.06964874,-121.31420135,0.280151370000112
-85.11344147,-121.30497742,0.280395510000062
-85.09613037,-121.310112,0.280395510000062
-85.09062958,-121.28740692,0.280395510000062
-85.08306122,-121.28140259,0.280639650000012
-85.09454346,-121.31497192,0.280639650000012
-85.110672,-121.31498718,0.2807617200001
-85.09941864,-121.30079651,0.2807617200001
-85.09192657,-121.31326294,0.28100586000005
-85.09758759,-121.30364227,0.281127930000139
-85.09744263,-121.31343842,0.281127930000139
-85.08489227,-121.31671906,0.281127930000139
-85.08422852,-121.31867981,0.281127930000139
-85.11573792,-121.31239319,0.28125
-85.09455872,-121.29889679,0.28125
-85.09986877,-121.30486298,0.281372070000089
-85.0802536,-121.32163239,0.28149413999995
-85.11087799,-121.3049469,0.281616210000038
-85.10372925,-121.30618286,0.281616210000038
-85.09609222,-121.30137634,0.281616210000038
-85.11829376,-121.31234741,0.281738280000127
-85.097229,-121.30992889,0.281860349999988
-85.09216309,-121.31704712,0.281860349999988
-85.1084671,-121.30568695,0.282104489999938
-85.10089111,-121.30854034,0.282104489999938
-85.09287262,-121.28717804,0.282104489999938
-85.096138,-121.31436157,0.282104489999938
-85.09462738,-121.31449127,0.282104489999938
-85.09441376,-121.31723022,0.282104489999938
-85.08516693,-121.32002258,0.282348630000115
-85.08226776,-121.32180023,0.282348630000115
-85.09641266,-121.3008194,0.282348630000115
-85.07871246,-121.32253265,0.282470699999976
-85.10124969,-121.30699158,0.282592770000065
-85.08891296,-121.31730652,0.282714839999926
-85.08802032,-121.31900024,0.282714839999926
-85.09758759,-121.30313873,0.282714839999926
-85.080513,-121.31565094,0.282836910000015
-85.09712219,-121.29779053,0.282958980000103
-85.09485626,-121.32154846,0.282958980000103
-85.09751129,-121.31323242,0.283081049999964
-85.09816742,-121.31780243,0.283203120000053
-85.10192871,-121.30496216,0.283325190000141
-85.09927368,-121.31336975,0.283325190000141
-85.09178162,-121.31929779,0.283447260000003
-85.10237122,-121.30583954,0.283569339999985
-85.09642792,-121.31765747,0.283569339999985
-85.09745026,-121.30433655,0.283691410000074
-85.08896637,-121.28349304,0.283691410000074
-85.11556244,-121.31284332,0.283813479999935
-85.11331177,-121.31304932,0.283935550000024
-85.08802032,-121.29673767,0.283935550000024
-85.08631134,-121.30950928,0.283935550000024
-85.09470367,-121.31754303,0.284057620000112
-85.08432007,-121.32199097,0.284057620000112
-85.0847702,-121.31625366,0.284179689999974
-85.11026001,-121.30700684,0.284423830000151
-85.09384155,-121.30172729,0.284545900000012
-85.09873962,-121.30812073,0.284545900000012
-85.10800171,-121.30721283,0.28491211000005
-85.06665802,-121.26872253,0.285034180000139
-85.076828,-121.32190704,0.285034180000139
-85.09140015,-121.31855011,0.28540038999995
-85.09647369,-121.31794739,0.285522460000038
-85.10154724,-121.30570221,0.285766599999988
-85.10199738,-121.31276703,0.285766599999988
-85.09496307,-121.31807709,0.285766599999988
-85.0790329,-121.32285309,0.285766599999988
-85.11403656,-121.31051636,0.285888670000077
-85.10246277,-121.30889893,0.286010739999938
-85.12181854,-121.31477356,0.286132810000026
-85.09620667,-121.30091858,0.286254880000115
-85.10157776,-121.31059265,0.286254880000115
-85.09381866,-121.30757141,0.286254880000115
-85.06793213,-121.31742859,0.286254880000115
-85.09345245,-121.3217392,0.286499020000065
-85.12555695,-121.31066132,0.286621089999926
-85.08129883,-121.32303619,0.286621089999926
-85.07665253,-121.32167053,0.286865230000103
-85.10559845,-121.30764771,0.286987299999964
-85.0976181,-121.31980896,0.286987299999964
-85.07929993,-121.32314301,0.286987299999964
-85.11338043,-121.30371094,0.287109370000053
-85.11440277,-121.30860901,0.287109370000053
-85.08306122,-121.3201828,0.287353510000003
-85.09803772,-121.31096649,0.287475589999985
-85.08772278,-121.31829071,0.287597660000074
-85.0960083,-121.30983734,0.287841800000024
-85.10740662,-121.31056976,0.288085939999974
-85.09304047,-121.31797028,0.288085939999974
-85.0792923,-121.31427002,0.288085939999974
-85.09918976,-121.31945038,0.288208010000062
-85.11496735,-121.31508636,0.288330080000151
-85.09944916,-121.3055191,0.288452150000012
-85.07128906,-121.27150726,0.288452150000012
-85.1088028,-121.30384064,0.2885742200001
-85.09570313,-121.30220795,0.2885742200001
-85.09636688,-121.32048798,0.288696289999962
-85.09944916,-121.31648254,0.288940430000139
-85.11457062,-121.3082428,0.2890625
-85.11773682,-121.31371307,0.28930663999995
-85.08468628,-121.31932831,0.28930663999995
-85.09449005,-121.30712128,0.28930663999995
-85.08991241,-121.31127167,0.28930663999995
-85.09989929,-121.32053375,0.289428710000038
-85.10012817,-121.30800629,0.289550780000127
-85.10057068,-121.31532288,0.289672849999988
-85.11998749,-121.31347656,0.289916989999938
-85.09268188,-121.32322693,0.290039060000026
-85.09752655,-121.31909943,0.290283199999976
-85.0957489,-121.31945801,0.290283199999976
-85.08062744,-121.27574921,0.290405270000065
-85.10083008,-121.31861115,0.290405270000065
-85.05760193,-121.26072693,0.290649410000015
-85.09229279,-121.2924881,0.290649410000015
-85.10923767,-121.31075287,0.290771480000103
-85.10881042,-121.30397797,0.291381839999985
-85.1024704,-121.30171967,0.291381839999985
-85.09243774,-121.3172226,0.291381839999985
-85.10504913,-121.30104828,0.291503910000074
-85.10617065,-121.30477905,0.291625979999935
-85.09249115,-121.31997681,0.291625979999935
-85.07523346,-121.27227783,0.291748050000024
-85.09909821,-121.31247711,0.291748050000024
-85.10064697,-121.318367,0.291870120000112
-85.09706116,-121.3004837,0.291870120000112
-85.09378052,-121.31022644,0.292114260000062
-85.08698273,-121.32006073,0.292236330000151
-85.11740875,-121.31468201,0.292358400000012
-85.09618378,-121.30835724,0.292358400000012
-85.1013031,-121.3134079,0.2924804700001
-85.10131073,-121.31668091,0.292602539999962
-85.08413696,-121.31807709,0.292602539999962
-85.10398102,-121.30415344,0.29296875
-85.05113983,-121.32443237,0.29296875
-85.0942688,-121.32013702,0.293090820000089
-85.09291077,-121.29866791,0.293090820000089
-85.09799957,-121.31742859,0.29321288999995
-85.10157013,-121.31996918,0.293334960000038
-85.10379028,-121.31085968,0.293457030000127
-85.08502197,-121.27828979,0.293579099999988
-85.0893631,-121.29321289,0.293701170000077
-85.0943222,-121.31665039,0.293823239999938
-85.08721924,-121.31471252,0.293823239999938
-85.06906128,-121.31958008,0.293823239999938
-85.10180664,-121.31072235,0.293945310000026
-85.11477661,-121.30699158,0.294067380000115
-85.10027313,-121.32087708,0.294067380000115
-85.10214233,-121.30269623,0.294189449999976
-85.09716034,-121.30930328,0.294311520000065
-85.10027313,-121.31462097,0.294433589999926
-85.08331299,-121.31654358,0.294433589999926
-85.09966278,-121.30222321,0.294677730000103
-85.08640289,-121.32531738,0.294921870000053
-85.10227966,-121.30525208,0.295043940000141
-85.11933136,-121.31545258,0.295166010000003
-85.05776215,-121.26183319,0.295410160000074
-85.1054306,-121.3067627,0.295410160000074
-85.06089783,-121.2651825,0.295532229999935
-85.11564636,-121.30265045,0.295654300000024
-85.09545135,-121.30249786,0.295654300000024
-85.10272217,-121.31582642,0.295654300000024
-85.08863831,-121.31948853,0.295776370000112
-85.11045837,-121.30474091,0.295898439999974
-85.09159088,-121.31359863,0.295898439999974
-85.10369873,-121.30536652,0.296020510000062
-85.1043396,-121.31214142,0.296020510000062
-85.08931732,-121.31729126,0.296020510000062
-85.08950043,-121.30227661,0.296142580000151
-85.06804657,-121.2681427,0.296508789999962
-85.09306335,-121.31784058,0.29663086000005
-85.09880829,-121.30869293,0.29663086000005
-85.09999084,-121.30541992,0.296752930000139
-85.11650848,-121.30805206,0.296875
-85.10144806,-121.30371094,0.296875
-85.09220123,-121.31928253,0.296875
-85.09044647,-121.32241058,0.296875
-85.10733795,-121.30815887,0.296997070000089
-85.08532715,-121.32376099,0.296997070000089
-85.09983826,-121.30281067,0.29711913999995
-85.091362,-121.32047272,0.29711913999995
-85.09942627,-121.29965973,0.29711913999995
-85.10298157,-121.31638336,0.297363280000127
-85.09507751,-121.31800842,0.297363280000127
-85.10185242,-121.3039093,0.297485349999988
-85.08583832,-121.30037689,0.297485349999988
-85.11820984,-121.30152893,0.297607420000077
-85.10399628,-121.30319977,0.297729489999938
-85.09928131,-121.31910706,0.298217770000065
-85.10305786,-121.30610657,0.298339839999926
-85.09290314,-121.31735229,0.298339839999926
-85.09226227,-121.32231903,0.298339839999926
-85.0900116,-121.28993225,0.298339839999926
-85.11148834,-121.30979156,0.298583980000103
-85.10529327,-121.31305695,0.298583980000103
-85.10063934,-121.31797028,0.298706049999964
-85.08363342,-121.32064056,0.298828120000053
-85.09152222,-121.31329346,0.298828120000053
-85.10826874,-121.30534363,0.298950190000141
-85.11911011,-121.30716705,0.299072260000003
-85.07141876,-121.27140808,0.299194339999985
-85.10022736,-121.30110931,0.299316410000074
-85.10518646,-121.30773926,0.299438479999935
-85.10507202,-121.30979919,0.299438479999935
-85.09294891,-121.32038116,0.299560550000024
-85.10070038,-121.30522156,0.299560550000024
-85.11286163,-121.30410004,0.299682620000112
-85.09954071,-121.31964874,0.299682620000112
-85.12213135,-121.31188202,0.299804689999974
-85.10147858,-121.30467224,0.299804689999974
-85.09867859,-121.3210907,0.299926760000062
-85.10415649,-121.30283356,0.300048830000151
-85.09365082,-121.32446289,0.300048830000151
-85.09950256,-121.29322815,0.300048830000151
-85.10240936,-121.31511688,0.300170900000012
-85.10487366,-121.31581116,0.3002929700001
-85.10798645,-121.31455994,0.30053711000005
-85.08856964,-121.31905365,0.30053711000005
-85.08635712,-121.32164001,0.30053711000005
-85.09773254,-121.30014801,0.300659180000139
-85.09452057,-121.32002258,0.30078125
-85.09124756,-121.3105011,0.30078125
-85.11025238,-121.30509949,0.300903320000089
-85.10565186,-121.30632019,0.300903320000089
-85.10832977,-121.30446625,0.301147460000038
-85.10090637,-121.31552124,0.301147460000038
-85.11936951,-121.30600739,0.301391599999988
-85.09957123,-121.30294037,0.301879880000115
-85.10095215,-121.31854248,0.301879880000115
-85.0901413,-121.32195282,0.301879880000115
-85.08875275,-121.29007721,0.301879880000115
-85.1053772,-121.30684662,0.302001949999976
-85.10559845,-121.31363678,0.302124020000065
-85.11116791,-121.30103302,0.302246089999926
-85.10092926,-121.31253052,0.302490230000103
-85.12184906,-121.31311035,0.302612299999964
-85.10321045,-121.30573273,0.302612299999964
-85.07901764,-121.32008362,0.302612299999964
-85.08177185,-121.27487946,0.302856440000141
-85.10105896,-121.29897308,0.302856440000141
-85.08686829,-121.32572174,0.302978510000003
-85.1015625,-121.30168152,0.302978510000003
-85.097229,-121.31851959,0.303222660000074
-85.09396362,-121.32502747,0.303222660000074
-85.08998871,-121.32447052,0.303344729999935
-85.12068176,-121.30872345,0.303466800000024
-85.10632324,-121.30819702,0.303466800000024
-85.10253906,-121.3116684,0.303710939999974
-85.0871582,-121.28701782,0.303710939999974
-85.09293365,-121.30731201,0.303955080000151
-85.07951355,-121.27477264,0.304077150000012
-85.11269379,-121.30473328,0.3041992200001
-85.10160828,-121.30420685,0.3041992200001
-85.08245087,-121.27661133,0.3041992200001
-85.10079193,-121.31504822,0.3041992200001
-85.09990692,-121.29000092,0.3041992200001
-85.08747864,-121.31771851,0.3041992200001
-85.07673645,-121.31741333,0.304321289999962
-85.12384796,-121.31542969,0.30444336000005
-85.07733154,-121.27217865,0.30444336000005
-85.08428192,-121.31777191,0.30444336000005
-85.11090088,-121.30226898,0.304565430000139
-85.07827759,-121.32296753,0.3046875
-85.09203339,-121.32465363,0.304809570000089
-85.092659,-121.31668091,0.30493163999995
-85.08805084,-121.32108307,0.30493163999995
-85.0871582,-121.32276917,0.30493163999995
-85.12138367,-121.31463623,0.305175780000127
-85.1136322,-121.30065918,0.305297849999988
-85.12036133,-121.30973053,0.305541989999938
-85.12245178,-121.30136108,0.305786130000115
-85.12288666,-121.30841827,0.306030270000065
-85.08866119,-121.31999969,0.306030270000065
-85.0894165,-121.32321167,0.306152339999926
-85.10418701,-121.30085754,0.306152339999926
-85.09774017,-121.31633759,0.306274410000015
-85.09401703,-121.31906128,0.306396480000103
-85.07932281,-121.27192688,0.306518549999964
-85.1110611,-121.30062103,0.306762690000141
-85.1050415,-121.30851746,0.306762690000141
-85.09647369,-121.31674957,0.306762690000141
-85.09483337,-121.30664063,0.307006839999985
-85.08409882,-121.32105255,0.307128910000074
-85.11505127,-121.30387115,0.307250979999935
-85.09117889,-121.29509735,0.307250979999935
-85.10884857,-121.3094635,0.307373050000024
-85.09005737,-121.27974701,0.307617189999974
-85.10487366,-121.3091507,0.307739260000062
-85.10064697,-121.31182861,0.307739260000062
-85.09934235,-121.31900024,0.307739260000062
-85.10836792,-121.30368805,0.307861330000151
-85.09340668,-121.32103729,0.307861330000151
-85.1131134,-121.3032074,0.3081054700001
-85.10668945,-121.30854797,0.3081054700001
-85.10157013,-121.31942749,0.3081054700001
-85.09101868,-121.32286072,0.3081054700001
-85.10227203,-121.30877686,0.308227539999962
-85.06021118,-121.31884003,0.308227539999962
-85.0932312,-121.32353973,0.30834961000005
-85.09564209,-121.29730225,0.30859375
-85.0823822,-121.32118988,0.308715820000089
-85.09544373,-121.31796265,0.30883788999995
-85.09098816,-121.31384277,0.30883788999995
-85.10489655,-121.30793762,0.309204099999988
-85.09435272,-121.3223877,0.309326170000077
-85.07675171,-121.32034302,0.309448239999938
-85.11048889,-121.30293274,0.309570310000026
-85.1020813,-121.31999969,0.309814449999976
-85.0802002,-121.31426239,0.309814449999976
-85.09237671,-121.32225037,0.310058589999926
-85.11341095,-121.30101776,0.310302730000103
-85.0969696,-121.3059082,0.310302730000103
-85.10790253,-121.30522156,0.310424799999964
-85.10272217,-121.30731964,0.310424799999964
-85.09571838,-121.31825256,0.310546870000053
-85.10765076,-121.30690002,0.310668940000141
-85.09734344,-121.29692841,0.310791010000003
-85.07290649,-121.32431793,0.310913089999985
-85.12136841,-121.30496216,0.311035160000074
-85.0951767,-121.28279877,0.311035160000074
-85.06388855,-121.26000977,0.311157229999935
-85.0923996,-121.31925964,0.311157229999935
-85.07981873,-121.31651306,0.311279300000024
-85.09403992,-121.29141998,0.311401370000112
-85.10473633,-121.31873322,0.311523439999974
-85.08003235,-121.3133316,0.311523439999974
-85.10214233,-121.32003021,0.311645510000062
-85.09925079,-121.30249786,0.311767580000151
-85.10202789,-121.3044281,0.311767580000151
-85.10211182,-121.30448151,0.311889650000012
-85.09046173,-121.3218689,0.311889650000012
-85.07698059,-121.32023621,0.311889650000012
-85.10384369,-121.30294037,0.3120117200001
-85.09201813,-121.32125092,0.312133789999962
-85.10109711,-121.30764771,0.312133789999962
-85.09346771,-121.31591797,0.31225586000005
-85.1078186,-121.30490875,0.312377930000139
-85.10257721,-121.31781769,0.312377930000139
-85.10009003,-121.30828857,0.312622070000089
-85.10836029,-121.3082428,0.312622070000089
-85.1177063,-121.3107605,0.31274413999995
-85.11418915,-121.30612183,0.312988280000127
-85.10929871,-121.30712891,0.312988280000127
-85.0641098,-121.26020813,0.312988280000127
-85.10327148,-121.32214355,0.312988280000127
-85.05895233,-121.32176208,0.312988280000127
-85.10063934,-121.29811096,0.313232420000077
-85.09931183,-121.30226898,0.313232420000077
-85.09161377,-121.3237381,0.313354489999938
-85.11264038,-121.3035965,0.313598630000115
-85.09204865,-121.32151794,0.313598630000115
-85.10516357,-121.30693817,0.313720699999976
-85.12406158,-121.3032608,0.314086910000015
-85.07518768,-121.31746674,0.314086910000015
-85.10069275,-121.31378174,0.314208980000103
-85.09088898,-121.31304169,0.314331049999964
-85.102211,-121.30101013,0.314453120000053
-85.070961,-121.32485199,0.314453120000053
-85.10083008,-121.30576324,0.314575190000141
-85.09384155,-121.32142639,0.314575190000141
-85.10572052,-121.32035828,0.314697260000003
-85.10598755,-121.32338715,0.314941410000074
-85.09780884,-121.31897736,0.314941410000074
-85.10791779,-121.30426788,0.315063479999935
-85.10646057,-121.30787659,0.315185550000024
-85.10289001,-121.31185913,0.315185550000024
-85.09552765,-121.28444672,0.315307620000112
-85.1164093,-121.30581665,0.315551760000062
-85.11959076,-121.31128693,0.315551760000062
-85.126297,-121.30426788,0.315673830000151
-85.1029129,-121.30860901,0.315795900000012
-85.10527802,-121.29459381,0.315795900000012
-85.11274719,-121.30297852,0.3159179700001
-85.11367798,-121.30867004,0.3159179700001
-85.10186005,-121.30957794,0.3159179700001
-85.10645294,-121.30187225,0.316040039999962
-85.09455872,-121.32250977,0.316284180000139
-85.1182785,-121.30870819,0.31640625
-85.10469055,-121.30847168,0.316528320000089
-85.10401917,-121.30745697,0.316528320000089
-85.10337067,-121.30335999,0.316772460000038
-85.10045624,-121.30651855,0.316772460000038
-85.10489655,-121.31881714,0.316772460000038
-85.09456635,-121.31625366,0.316894530000127
-85.09037781,-121.32169342,0.316894530000127
-85.12042236,-121.30799103,0.317138670000077
-85.11022949,-121.30319977,0.317138670000077
-85.09105682,-121.31948853,0.317138670000077
-85.10562897,-121.30439758,0.317382810000026
-85.11633301,-121.3067627,0.317871089999926
-85.11290741,-121.30261993,0.317871089999926
-85.10772705,-121.30471039,0.317871089999926
-85.11435699,-121.30589294,0.317993160000015
-85.0923996,-121.31886292,0.318115230000103
-85.12261963,-121.30876923,0.318237299999964
-85.09789276,-121.30554962,0.318237299999964
-85.09593201,-121.3186264,0.318359370000053
-85.09308624,-121.32292938,0.318359370000053
-85.0848999,-121.32177734,0.318359370000053
-85.06530762,-121.32604218,0.318725589999985
-85.11824036,-121.3086319,0.318969729999935
-85.10344696,-121.32225037,0.318969729999935
-85.10621643,-121.30242157,0.319335939999974
-85.11659241,-121.30561829,0.319580080000151
-85.10270691,-121.30644226,0.3198242200001
-85.0933609,-121.3232193,0.3198242200001
-85.10971069,-121.30448151,0.319946289999962
-85.09242249,-121.31611633,0.319946289999962
-85.0920105,-121.31809998,0.319946289999962
-85.12422943,-121.31168365,0.32006836000005
-85.08805847,-121.32054901,0.32006836000005
-85.10053253,-121.30476379,0.32055663999995
-85.09291077,-121.31861877,0.32055663999995
-85.10616302,-121.31069183,0.320678710000038
-85.10063171,-121.31401825,0.320678710000038
-85.103508,-121.30291748,0.320800780000127
-85.0849762,-121.31855774,0.320922849999988
-85.10357666,-121.30062866,0.320922849999988
-85.11737061,-121.30207825,0.321166989999938
-85.09229279,-121.32466125,0.321289060000026
-85.12024689,-121.29994202,0.321411130000115
-85.06967163,-121.32492065,0.321411130000115
-85.0956192,-121.2878418,0.321655270000065
-85.10823822,-121.30240631,0.321777339999926
-85.10594177,-121.30238342,0.321777339999926
-85.10009003,-121.30741882,0.321899410000015
-85.10372925,-121.31654358,0.321899410000015
-85.11743164,-121.31096649,0.322021480000103
-85.09812164,-121.30654907,0.322021480000103
-85.09407043,-121.32156372,0.322265620000053
-85.10545349,-121.31218719,0.322753910000074
-85.09771729,-121.31717682,0.322753910000074
-85.10362244,-121.3022995,0.322998050000024
-85.10459137,-121.30343628,0.322998050000024
-85.06638336,-121.26396179,0.323120120000112
-85.10646057,-121.31427002,0.323120120000112
-85.11186981,-121.30518341,0.323242189999974
-85.09693909,-121.31728363,0.323242189999974
-85.06961823,-121.26431274,0.323364260000062
-85.10401154,-121.31684113,0.323364260000062
-85.11061096,-121.3015976,0.323608400000012
-85.10050964,-121.30748749,0.323608400000012
-85.08773041,-121.31983185,0.3237304700001
-85.08972168,-121.31697845,0.32397461000005
-85.11675262,-121.30413055,0.32421875
-85.10590363,-121.30229187,0.32421875
-85.09709167,-121.29309845,0.32421875
-85.1193924,-121.30332184,0.32446288999995
-85.12695313,-121.31758118,0.324584960000038
-85.1074295,-121.30476379,0.324829099999988
-85.10208893,-121.31607056,0.324829099999988
-85.0607605,-121.25921631,0.324951170000077
-85.09307861,-121.3225174,0.325073239999938
-85.08733368,-121.31906128,0.325317380000115
-85.10353088,-121.30197144,0.325439449999976
-85.05438232,-121.33171082,0.325439449999976
-85.06517029,-121.26184082,0.325561520000065
-85.09664154,-121.31182098,0.325683589999926
-85.09803009,-121.31484985,0.325805660000015
-85.12091064,-121.30576324,0.325927730000103
-85.10810852,-121.30716705,0.326171870000053
-85.10856628,-121.31096649,0.326293940000141
-85.10077667,-121.3143692,0.326293940000141
-85.10289764,-121.30673218,0.326293940000141
-85.11489868,-121.30264282,0.326416010000003
-85.09790802,-121.30693054,0.326538089999985
-85.09855652,-121.31720734,0.326538089999985
-85.10456848,-121.31417084,0.326660160000074
-85.10421753,-121.30011749,0.326660160000074
-85.10987854,-121.30731964,0.326782229999935
-85.08872223,-121.32119751,0.326782229999935
-85.12426758,-121.31089783,0.326904300000024
-85.10903168,-121.30638885,0.327026370000112
-85.10629272,-121.3086319,0.327148439999974
-85.09928894,-121.31452179,0.327270510000062
-85.10276031,-121.31562805,0.327270510000062
-85.1190567,-121.30429077,0.327514650000012
-85.09886169,-121.32025909,0.3276367200001
-85.09793091,-121.31981659,0.3276367200001
-85.09922028,-121.28957367,0.32788086000005
-85.12072754,-121.30622101,0.328125
-85.10614777,-121.31381226,0.328125
-85.05461121,-121.29370117,0.328247070000089
-85.09622955,-121.31880188,0.328247070000089
-85.10021973,-121.3161087,0.328735349999988
-85.05416107,-121.29216003,0.328979489999938
-85.10971832,-121.31334686,0.328979489999938
-85.12016296,-121.31703186,0.329223630000115
-85.0995636,-121.32158661,0.329345699999976
-85.1016922,-121.30713654,0.329345699999976
-85.10713196,-121.30593109,0.329467770000065
-85.10089111,-121.31417084,0.329467770000065
-85.11296844,-121.3008728,0.329589839999926
-85.09364319,-121.32037354,0.329589839999926
-85.09693909,-121.31987762,0.329711910000015
-85.06835938,-121.26229858,0.329833980000103
-85.10105896,-121.3025589,0.330200190000141
-85.11064148,-121.31169128,0.330200190000141
-85.10379028,-121.31265259,0.330200190000141
-85.10310364,-121.31510925,0.330200190000141
-85.09694672,-121.32315063,0.330200190000141
-85.1155014,-121.29955292,0.330322260000003
-85.08157349,-121.27147675,0.330322260000003
-85.10111237,-121.28610992,0.330322260000003
-85.10370636,-121.31537628,0.330566410000074
-85.10199738,-121.31848907,0.330566410000074
-85.10643005,-121.30014038,0.330688479999935
-85.07935333,-121.2701416,0.330688479999935
-85.10114288,-121.31471252,0.330688479999935
-85.11026001,-121.3013916,0.330810550000024
-85.0837326,-121.31610107,0.330932620000112
-85.05116272,-121.25195313,0.331054689999974
-85.05290222,-121.29154205,0.331176760000062
-85.09719849,-121.32042694,0.3315429700001
-85.10752106,-121.30422974,0.331665039999962
-85.10562134,-121.31231689,0.331665039999962
-85.08905792,-121.31878662,0.33178711000005
-85.10162354,-121.31552124,0.331909180000139
-85.0611496,-121.29904175,0.33203125
-85.10131073,-121.30139923,0.332153320000089
-85.12162018,-121.3020401,0.33227538999995
-85.1129303,-121.30078125,0.33227538999995
-85.10539246,-121.29696655,0.332397460000038
-85.10182953,-121.31304169,0.332519530000127
-85.09570313,-121.3208313,0.332519530000127
-85.10639954,-121.30007172,0.332763670000077
-85.09172821,-121.31726074,0.333007810000026
-85.12819672,-121.31163025,0.333251949999976
-85.12316895,-121.31446075,0.333251949999976
-85.11055756,-121.30046844,0.333251949999976
-85.05188751,-121.29093933,0.333374020000065
-85.09655762,-121.31339264,0.333374020000065
-85.12342072,-121.30341339,0.333618160000015
-85.10301208,-121.31765747,0.333618160000015
-85.09462738,-121.31575012,0.333618160000015
-85.11334229,-121.29910278,0.333740230000103
-85.09509277,-121.29350281,0.333740230000103
-85.05207825,-121.25363922,0.333862299999964
-85.11448669,-121.30345917,0.333984370000053
-85.10771942,-121.30281067,0.334106440000141
-85.10656738,-121.30441284,0.334228510000003
-85.08155823,-121.27033997,0.334472660000074
-85.0979538,-121.31852722,0.334472660000074
-85.09156799,-121.31678009,0.334716800000024
-85.06195831,-121.25717926,0.334838870000112
-85.10571289,-121.31562805,0.334838870000112
-85.09690094,-121.29644775,0.334838870000112
-85.09883118,-121.31710052,0.334960939999974
-85.09223175,-121.31482697,0.334960939999974
-85.11823273,-121.30671692,0.335083010000062
-85.10415649,-121.30999756,0.335205080000151
-85.09535217,-121.3168335,0.335327150000012
-85.12581635,-121.31255341,0.3354492200001
-85.12109375,-121.30329895,0.335571289999962
-85.11493683,-121.3007431,0.335571289999962
-85.06728363,-121.30162048,0.335571289999962
-85.10141754,-121.28237152,0.335571289999962
-85.11653137,-121.30348206,0.33569336000005
-85.10217285,-121.3163681,0.33569336000005
-85.11953735,-121.30079651,0.3359375
-85.08454895,-121.31723785,0.3359375
-85.10011292,-121.30558777,0.336059570000089
-85.12275696,-121.30522919,0.33618163999995
-85.09008789,-121.32344818,0.33618163999995
-85.1242218,-121.30977631,0.336303710000038
-85.05993652,-121.25730896,0.336303710000038
-85.08865356,-121.27451324,0.336425780000127
-85.10102081,-121.29818726,0.336425780000127
-85.0970993,-121.31423187,0.336791989999938
-85.12690735,-121.31661224,0.336914060000026
-85.10135651,-121.31758118,0.336914060000026
-85.10798645,-121.30355835,0.337158199999976
-85.12139893,-121.30240631,0.337280270000065
-85.09079742,-121.31800842,0.337280270000065
-85.08637238,-121.32016754,0.337280270000065
-85.11530304,-121.30008698,0.337402339999926
-85.10714722,-121.30509949,0.337402339999926
-85.10305786,-121.30261993,0.337524410000015
-85.10710907,-121.31803894,0.337524410000015
-85.1101532,-121.30113983,0.337768549999964
-85.0931778,-121.3167038,0.337890620000053
-85.12529755,-121.31382751,0.338012690000141
-85.09541321,-121.31413269,0.338623050000024
-85.06334686,-121.25908661,0.338989260000062
-85.09616852,-121.28707123,0.339111330000151
-85.10870361,-121.31768799,0.339233400000012
-85.10707092,-121.30478668,0.3393554700001
-85.08950043,-121.31617737,0.3393554700001
-85.10378265,-121.30905914,0.3393554700001
-85.12178802,-121.30071259,0.339477539999962
-85.10561371,-121.30917358,0.339477539999962
-85.1185379,-121.30470276,0.33959961000005
-85.09413147,-121.31804657,0.33959961000005
-85.09436035,-121.32157898,0.33959961000005
-85.08930969,-121.32193756,0.339721680000139
-85.05008698,-121.25112915,0.33984375
-85.097229,-121.31703949,0.33984375
-85.10311127,-121.30175018,0.339965820000089
-85.07067108,-121.30358887,0.339965820000089
-85.07362366,-121.30544281,0.34008788999995
-85.10806274,-121.31337738,0.34008788999995
-85.10472107,-121.31764221,0.34008788999995
-85.10565948,-121.30567932,0.340209960000038
-85.1116333,-121.30313873,0.340332030000127
-85.11660004,-121.30277252,0.340454099999988
-85.1003418,-121.31604004,0.340454099999988
-85.09155273,-121.31936646,0.340454099999988
-85.12497711,-121.31481934,0.340576170000077
-85.11418915,-121.30349731,0.340942380000115
-85.11245728,-121.30130005,0.341064449999976
-85.10545349,-121.29914856,0.341308589999926
-85.10349274,-121.291008,0.341308589999926
-85.10301208,-121.30355835,0.341308589999926
-85.1259079,-121.30335999,0.341430660000015
-85.10169983,-121.31816864,0.341430660000015
-85.09751892,-121.32035065,0.341430660000015
-85.10189056,-121.31266022,0.341430660000015
-85.10726929,-121.30338287,0.341552730000103
-85.10812378,-121.31316376,0.341552730000103
-85.10900116,-121.30557251,0.341674799999964
-85.10458374,-121.31363678,0.341674799999964
-85.10388184,-121.31609344,0.341674799999964
-85.09221649,-121.31768036,0.341674799999964
-85.1259613,-121.31098938,0.341918940000141
-85.11077881,-121.3146286,0.341918940000141
-85.12084961,-121.30361176,0.342041010000003
-85.09456635,-121.28398895,0.342041010000003
-85.09619904,-121.32151031,0.342285160000074
-85.10166931,-121.30046844,0.342407229999935
-85.09712219,-121.28681946,0.342407229999935
-85.05371857,-121.29293823,0.342651370000112
-85.1085968,-121.29792023,0.342773439999974
-85.10748291,-121.30258942,0.342773439999974
-85.10704041,-121.31786346,0.342773439999974
-85.05422974,-121.25366211,0.342895510000062
-85.11430359,-121.30287933,0.343139650000012
-85.08898163,-121.32121277,0.3432617200001
-85.10993958,-121.31307983,0.34350586000005
-85.08766174,-121.32211304,0.34350586000005
-85.1122818,-121.30175018,0.343627930000139
-85.05892181,-121.25502777,0.34399413999995
-85.12085724,-121.3037796,0.344360349999988
-85.09468842,-121.31916809,0.344360349999988
-85.09165192,-121.32295227,0.344604489999938
-85.10092163,-121.31665039,0.344726560000026
-85.08989716,-121.32280731,0.344726560000026
-85.09780121,-121.31491089,0.344848630000115
-85.10289001,-121.30210876,0.344970699999976
-85.10951996,-121.31582642,0.344970699999976
-85.09696198,-121.31610107,0.345092770000065
-85.10778809,-121.2996521,0.345336910000015
-85.09828186,-121.28627777,0.345336910000015
-85.12426758,-121.3091507,0.345581049999964
-85.08683777,-121.32057953,0.345581049999964
-85.10890961,-121.31755066,0.345703120000053
-85.0943222,-121.31816101,0.345825190000141
-85.10959625,-121.29930115,0.345947260000003
-85.10758972,-121.30892181,0.345947260000003
-85.09874725,-121.31925964,0.345947260000003
-85.10562134,-121.31504059,0.346313479999935
-85.10469818,-121.30474091,0.346557620000112
-85.09677124,-121.31910706,0.346557620000112
-85.10402679,-121.31616974,0.346679689999974
-85.10028839,-121.31587982,0.346679689999974
-85.1057663,-121.29656982,0.346679689999974
-85.10958862,-121.30934143,0.346801760000062
-85.10572815,-121.31156921,0.346923830000151
-85.0897522,-121.31932068,0.347045900000012
-85.12024689,-121.30583954,0.3471679700001
-85.11692047,-121.30090332,0.34741211000005
-85.13082123,-121.31002045,0.34741211000005
-85.09368134,-121.31738281,0.34765625
-85.1047821,-121.2995224,0.34765625
-85.10246277,-121.30351257,0.347778320000089
-85.09980774,-121.30705261,0.347778320000089
-85.06227112,-121.25850677,0.34790038999995
-85.1049118,-121.30335236,0.348266599999988
-85.09618378,-121.31784058,0.348388670000077
-85.10057068,-121.31617737,0.348510739999938
-85.12876892,-121.30758667,0.348632810000026
-85.09549713,-121.31378174,0.348632810000026
-85.08715057,-121.31787872,0.348632810000026
-85.09068298,-121.31765747,0.348754880000115
-85.10967255,-121.30912781,0.348876949999976
-85.06745911,-121.26014709,0.348999020000065
-85.09442902,-121.3212204,0.349121089999926
-85.10549164,-121.3082962,0.349487299999964
-85.09861755,-121.31604767,0.349731440000141
-85.10173035,-121.31804657,0.349853510000003
-85.09709167,-121.31642914,0.349853510000003
-85.10282135,-121.30194092,0.349975589999985
-85.07424927,-121.32289886,0.349975589999985
