"X","Y","Z"
-84.96961975,-121.34467316,0.0605468800001745
-84.99635315,-121.32849121,0.0606689500000357
-84.96849823,-121.34390259,0.0606689500000357
-84.9562912,-121.34673309,0.0607910200001243
-84.95126343,-121.34275055,0.0607910200001243
-84.95597076,-121.3133316,0.0609130900002128
-84.99813843,-121.33466339,0.061035160000074
-84.98986053,-121.3287735,0.061035160000074
-84.97194672,-121.30268097,0.0612793000000238
-84.99156952,-121.30706024,0.0614013700001124
-84.9641571,-121.34047699,0.0615234400002009
-84.99529266,-121.3081665,0.0616455100000621
-84.95812225,-121.31388092,0.0617675800001507
-84.95017242,-121.3259964,0.0617675800001507
-84.99635315,-121.32398987,0.0617675800001507
-84.99990082,-121.3045578,0.0618896500000119
-84.96720886,-121.30223846,0.062133790000189
-84.99794769,-121.33114624,0.062133790000189
-84.96624756,-121.33338165,0.0622558600000502
-84.95665741,-121.31057739,0.0623779300001388
-84.97743988,-121.34986877,0.0623779300001388
-84.96047211,-121.32154083,0.0625
-84.97170258,-121.30238342,0.0625
-84.99841309,-121.33495331,0.0625
-84.95543671,-121.30235291,0.0626220700000886
-84.9884491,-121.3142395,0.0627441400001771
-84.95556641,-121.29589081,0.0627441400001771
-84.99410248,-121.30584717,0.0628662100000383
-84.95938873,-121.30967712,0.0628662100000383
-84.99433899,-121.34693909,0.0629882800001269
-84.95176697,-121.32025146,0.0631103500002155
-84.96219635,-121.34108734,0.0631103500002155
-84.95049286,-121.30042267,0.0632324200000767
-84.99446869,-121.3276062,0.0632324200000767
-84.9593811,-121.30895996,0.0633545000000595
-84.99910736,-121.30523682,0.0633545000000595
-84.96736145,-121.30471039,0.0634765700001481
-84.96385193,-121.30509949,0.0634765700001481
-84.99912262,-121.3327713,0.0634765700001481
-84.9606781,-121.3127594,0.0637207100000978
-84.96099091,-121.32776642,0.0637207100000978
-84.96633911,-121.30541992,0.0637207100000978
-84.95126343,-121.29968262,0.0637207100000978
-84.96482849,-121.34195709,0.0638427800001864
-84.95381165,-121.3128891,0.0640869200001362
-84.9561615,-121.30283356,0.0640869200001362
-84.99780273,-121.30692291,0.0642089900002247
-84.95025635,-121.33065796,0.0642089900002247
-84.98462677,-121.34941101,0.0643310600000859
-84.96405792,-121.3327179,0.0644531300001745
-84.96479034,-121.31143951,0.0644531300001745
-84.99330139,-121.3067627,0.0645752000000357
-84.96630859,-121.33249664,0.0646972700001243
-84.96167755,-121.34557343,0.0646972700001243
-84.97131348,-121.3060379,0.0648193400002128
-84.99455261,-121.34555054,0.064941410000074
-84.95128632,-121.29839325,0.064941410000074
-84.98805237,-121.32315826,0.064941410000074
-84.97408295,-121.30512238,0.0650634800001626
-84.95545959,-121.30101776,0.0650634800001626
-84.97148895,-121.34707642,0.0651855500000238
-84.9610672,-121.33560944,0.0653076200001124
-84.95469666,-121.30983734,0.0655517600000621
-84.95880127,-121.32713318,0.0656738300001507
-84.95570374,-121.3134613,0.0656738300001507
-84.95030212,-121.3213501,0.0656738300001507
-84.99662018,-121.32689667,0.0657959000000119
-84.96291351,-121.34152222,0.0659179700001005
-84.96340179,-121.32717896,0.066040040000189
-84.96205902,-121.3052063,0.066040040000189
-84.95017242,-121.3250885,0.066040040000189
-84.99880219,-121.30638885,0.0661621100000502
-84.97402954,-121.30634308,0.0661621100000502
-84.97357941,-121.3048172,0.0662841800001388
-84.95057678,-121.31208038,0.0662841800001388
-84.96047974,-121.30451965,0.06640625
-84.95800018,-121.31346893,0.06640625
-84.99601746,-121.30703735,0.06640625
-84.96672058,-121.30809784,0.06640625
-84.97083282,-121.30976868,0.06640625
-84.9575119,-121.30742645,0.0665283200000886
-84.9584198,-121.30156708,0.0665283200000886
-84.95005035,-121.29728699,0.0666503900001771
-84.95085907,-121.29556274,0.0667724600000383
-84.95290375,-121.32566071,0.0667724600000383
-84.96202087,-121.30825806,0.0670166000002155
-84.95011902,-121.31855011,0.0670166000002155
-84.96298981,-121.30586243,0.0670166000002155
-84.95072937,-121.31417847,0.0671386700000767
-84.95301819,-121.29811859,0.0671386700000767
-84.95126343,-121.32183838,0.0671386700000767
-84.98999023,-121.31028748,0.0671386700000767
-84.96025085,-121.32190704,0.0672607500000595
-84.98903656,-121.34863281,0.0673828200001481
-84.97467041,-121.30931854,0.0675048900000093
-84.95088959,-121.32556915,0.0675048900000093
-84.99935913,-121.30386353,0.0676269600000978
-84.96278381,-121.31318665,0.0677490300001864
-84.993927,-121.34761047,0.0677490300001864
-84.98480225,-121.3053894,0.0677490300001864
-84.97544098,-121.30859375,0.0677490300001864
-84.98381805,-121.34853363,0.0678711000000476
-84.96669769,-121.33944702,0.0679931700001362
-84.99436188,-121.30368042,0.0679931700001362
-84.97212982,-121.31047058,0.0679931700001362
-84.95171356,-121.31556702,0.0679931700001362
-84.99894714,-121.33734894,0.0681152400002247
-84.9769516,-121.3083725,0.0682373100000859
-84.97535706,-121.3110733,0.0683593800001745
-84.95407104,-121.29611206,0.0683593800001745
-84.95687866,-121.34925842,0.0683593800001745
-84.99311829,-121.306633,0.0683593800001745
-84.95776367,-121.34645844,0.0683593800001745
-84.97016907,-121.30914307,0.0684814500000357
-84.96414185,-121.34098053,0.0684814500000357
-84.95349121,-121.32987976,0.0684814500000357
-84.95684052,-121.32697296,0.0686035200001243
-84.95305634,-121.29621124,0.0687255900002128
-84.95482635,-121.32689667,0.068847660000074
-84.95713043,-121.33348083,0.068847660000074
-84.96235657,-121.3028717,0.0689697300001626
-84.99491119,-121.34377289,0.0690918000000238
-84.95069885,-121.3141098,0.0690918000000238
-84.99933624,-121.30406189,0.0690918000000238
-84.95606232,-121.29615021,0.0690918000000238
-84.96412659,-121.3394165,0.0692138700001124
-84.96115875,-121.34233856,0.0692138700001124
-84.9670105,-121.30576324,0.0693359400002009
-84.95543671,-121.31050873,0.0693359400002009
-84.95262909,-121.31600189,0.0694580100000621
-84.9703064,-121.30979919,0.0694580100000621
-84.98899841,-121.30645752,0.0695800800001507
-84.97662354,-121.31031799,0.0695800800001507
-84.95658112,-121.32668304,0.0695800800001507
-84.993927,-121.32756042,0.0695800800001507
-84.97741699,-121.30857849,0.0697021500000119
-84.96967316,-121.30859375,0.0697021500000119
-84.95583344,-121.31301117,0.069946290000189
-84.96484375,-121.30291748,0.069946290000189
-84.9793396,-121.31114197,0.0700683600000502
-84.95339203,-121.31681061,0.0700683600000502
-84.95346832,-121.32205963,0.0701904300001388
-84.99214172,-121.32202911,0.0701904300001388
-84.96260834,-121.32105255,0.0703125
-84.99430084,-121.30461121,0.0703125
-84.96875763,-121.30552673,0.0703125
-84.95540619,-121.31636047,0.0703125
-84.95809937,-121.31819916,0.0703125
-84.98039246,-121.34657288,0.0703125
-84.97904968,-121.30435944,0.0704345700000886
-84.97338104,-121.30967712,0.0704345700000886
-84.95044708,-121.29141998,0.0704345700000886
-84.9537735,-121.31279755,0.0704345700000886
-84.95168304,-121.31549072,0.0704345700000886
-84.9576416,-121.32467651,0.0705566400001771
-84.99114227,-121.30973816,0.0705566400001771
-84.96353912,-121.30219269,0.0706787100000383
-84.95504761,-121.34311676,0.0706787100000383
-84.99385834,-121.32449341,0.0706787100000383
-84.96118164,-121.30190277,0.0708007800001269
-84.96324158,-121.32779694,0.0708007800001269
-84.98297119,-121.30673218,0.0708007800001269
-84.96170044,-121.34607697,0.0708007800001269
-84.99968719,-121.30800629,0.0709228500002155
-84.95906067,-121.34947205,0.0709228500002155
-84.99794769,-121.3400116,0.0710449200000767
-84.95700836,-121.32839966,0.0711670000000595
-84.95004272,-121.29366302,0.0711670000000595
-84.99359131,-121.34116364,0.0712890700001481
-84.95722198,-121.32965851,0.0712890700001481
-84.95671844,-121.34539795,0.0712890700001481
-84.99492645,-121.34394073,0.0714111400000093
-84.95931244,-121.3269577,0.0714111400000093
-84.95321655,-121.32176208,0.0714111400000093
-84.9540329,-121.3275528,0.0714111400000093
-84.95458221,-121.347229,0.0714111400000093
-84.96127319,-121.34172058,0.0715332100000978
-84.98716736,-121.30809021,0.0715332100000978
-84.96366882,-121.309021,0.0716552800001864
-84.99887085,-121.30220032,0.0717773500000476
-84.95214844,-121.31596375,0.0717773500000476
-84.96768951,-121.33576965,0.0718994200001362
-84.98039246,-121.34932709,0.0718994200001362
-84.97186279,-121.3287735,0.0720214900002247
-84.95137024,-121.30388641,0.0720214900002247
-84.98120117,-121.314888,0.0720214900002247
-84.95659637,-121.30996704,0.0720214900002247
-84.96156311,-121.33956909,0.0720214900002247
-84.98940277,-121.34684753,0.0721435600000859
-84.95349121,-121.32074738,0.0721435600000859
-84.96427917,-121.29966736,0.0722656300001745
-84.9887085,-121.30760956,0.0722656300001745
-84.96401978,-121.32424927,0.0723877000000357
-84.9629364,-121.34364319,0.0723877000000357
-84.95324707,-121.31246948,0.0723877000000357
-84.96008301,-121.31819916,0.0723877000000357
-84.97885895,-121.30953979,0.0725097700001243
-84.95570374,-121.32981873,0.0725097700001243
-84.95565033,-121.3134613,0.0726318400002128
-84.99427795,-121.33840179,0.0726318400002128
-84.9509964,-121.32183075,0.0726318400002128
-84.95858765,-121.3331604,0.0726318400002128
-84.95320892,-121.32171631,0.0726318400002128
-84.96157837,-121.30020905,0.072753910000074
-84.96527863,-121.30328369,0.072753910000074
-84.96470642,-121.31285095,0.072753910000074
-84.99713898,-121.32758331,0.072753910000074
-84.95140839,-121.31152344,0.072753910000074
-84.95079803,-121.31088257,0.072753910000074
-84.99781799,-121.31430817,0.072753910000074
-84.96691895,-121.34559631,0.0729980500000238
-84.98246002,-121.31414795,0.0729980500000238
-84.95716858,-121.31507874,0.0729980500000238
-84.95861816,-121.34790802,0.0731201200001124
-84.95896912,-121.2938385,0.0732421900002009
-84.95256805,-121.31585693,0.0732421900002009
-84.95610809,-121.31678772,0.0732421900002009
-84.96829987,-121.33380127,0.0733642600000621
-84.98307037,-121.31065369,0.0733642600000621
-84.97975922,-121.31228638,0.0733642600000621
-84.95809937,-121.2935791,0.0733642600000621
-84.99810028,-121.3396225,0.0734863300001507
-84.96148682,-121.32846832,0.0734863300001507
-84.98876953,-121.32866669,0.0734863300001507
-84.95780945,-121.30692291,0.0734863300001507
-84.95996857,-121.2974472,0.0736084000000119
-84.95542908,-121.30631256,0.0736084000000119
-84.97444153,-121.30661011,0.0736084000000119
-84.95735931,-121.33233643,0.0736084000000119
-84.99210358,-121.30948639,0.0736084000000119
-84.95662689,-121.31578827,0.0737304700001005
-84.98027802,-121.31154633,0.073852540000189
-84.97221375,-121.34481812,0.073852540000189
-84.97718048,-121.30693817,0.0739746100000502
-84.98626709,-121.30547333,0.0739746100000502
-84.95253754,-121.31063843,0.0740966800001388
-84.95062256,-121.30831909,0.07421875
-84.95236969,-121.31588745,0.07421875
-84.96128082,-121.31893158,0.07421875
-84.97670746,-121.34461212,0.07421875
-84.98964691,-121.34568787,0.0743408200000886
-84.98233032,-121.31008911,0.0743408200000886
-84.97982788,-121.31001282,0.0743408200000886
-84.9562912,-121.31851196,0.0743408200000886
-84.96022797,-121.30899811,0.0743408200000886
-84.97312164,-121.34857941,0.0743408200000886
-84.97132874,-121.30197906,0.0744628900001771
-84.96510315,-121.33231354,0.0744628900001771
-84.98908234,-121.34690094,0.0744628900001771
-84.97251129,-121.30400848,0.0745849600000383
-84.95915222,-121.33085632,0.0745849600000383
-84.99923706,-121.31655121,0.0745849600000383
-84.97173309,-121.33686829,0.0747070300001269
-84.95641327,-121.29122925,0.0747070300001269
-84.96478271,-121.31327057,0.0748291000002155
-84.95861053,-121.33184052,0.0748291000002155
-84.96015167,-121.34615326,0.0748291000002155
-84.95562744,-121.29193878,0.0749511700000767
-84.9666214,-121.33959961,0.0749511700000767
-84.96533203,-121.34857178,0.0749511700000767
-84.95294189,-121.29808044,0.0750732500000595
-84.96331787,-121.32710266,0.0750732500000595
-84.98616028,-121.31520081,0.0750732500000595
-84.96617126,-121.29878998,0.0750732500000595
-84.95149994,-121.31932831,0.0750732500000595
-84.99523163,-121.30583191,0.0750732500000595
-84.99339294,-121.34896088,0.0751953200001481
-84.95987701,-121.34620667,0.0751953200001481
-84.96959686,-121.30090332,0.0751953200001481
-84.95565796,-121.32997131,0.0751953200001481
-84.99305725,-121.34919739,0.0751953200001481
-84.96491241,-121.32250977,0.0753173900000093
-84.95468903,-121.31342316,0.0754394600000978
-84.96517181,-121.32006073,0.0755615300001864
-84.95040131,-121.29936218,0.0755615300001864
-84.98356628,-121.30983734,0.0755615300001864
-84.95886993,-121.34024048,0.0755615300001864
-84.99053955,-121.34264374,0.0756836000000476
-84.96192169,-121.33886719,0.0756836000000476
-84.99764252,-121.30779266,0.0756836000000476
-84.96523285,-121.29673004,0.0756836000000476
-84.96528625,-121.33377075,0.0756836000000476
-84.9651413,-121.33075714,0.0758056700001362
-84.99558258,-121.31465149,0.0758056700001362
-84.97016907,-121.33434296,0.0759277400002247
-84.96173859,-121.34783173,0.0759277400002247
-84.98957825,-121.30953217,0.0759277400002247
-84.96587372,-121.33904266,0.0759277400002247
-84.99714661,-121.30799866,0.0759277400002247
-84.96315002,-121.29438782,0.0760498100000859
-84.95313263,-121.30516052,0.0760498100000859
-84.95596313,-121.2983017,0.0760498100000859
-84.96513367,-121.29653168,0.0761718800001745
-84.97891235,-121.30667114,0.0761718800001745
-84.96987152,-121.29987335,0.0761718800001745
-84.95140839,-121.29051971,0.0761718800001745
-84.95040131,-121.31450653,0.0761718800001745
-84.95430756,-121.31713104,0.0762939500000357
-84.96073151,-121.31983948,0.0764160200001243
-84.99375916,-121.32132721,0.0764160200001243
-84.95687866,-121.33071899,0.0765380900002128
-84.99115753,-121.32791138,0.0765380900002128
-84.96507263,-121.30368042,0.076660160000074
-84.96528625,-121.33348846,0.076660160000074
-84.95121002,-121.32028198,0.076660160000074
-84.99507904,-121.33500671,0.0767822300001626
-84.95001221,-121.31848145,0.0767822300001626
-84.96797943,-121.30699921,0.0769043000000238
-84.95133209,-121.30850983,0.0770263700001124
-84.95462799,-121.30767822,0.0770263700001124
-84.96627045,-121.34020233,0.0772705100000621
-84.95584869,-121.32341003,0.0772705100000621
-84.95352173,-121.31807709,0.0772705100000621
-84.97940063,-121.3468399,0.0772705100000621
-84.95464325,-121.30019379,0.0773925800001507
-84.95316315,-121.2902832,0.0773925800001507
-84.97120667,-121.33815002,0.0775146500000119
-84.9970932,-121.30095673,0.0775146500000119
-84.95687866,-121.31466675,0.0775146500000119
-84.96369934,-121.32039642,0.0775146500000119
-84.96221924,-121.3276062,0.0775146500000119
-84.96189117,-121.33879852,0.0776367200001005
-84.9597702,-121.32601929,0.0776367200001005
-84.99363708,-121.34779358,0.077758790000189
-84.95176697,-121.30998993,0.077758790000189
-84.95561218,-121.31511688,0.0780029300001388
-84.95735168,-121.33094025,0.0780029300001388
-84.9706192,-121.34615326,0.0780029300001388
-84.9642334,-121.33036804,0.078125
-84.98638916,-121.34755707,0.078125
-84.96083069,-121.29250336,0.0782470700000886
-84.95539856,-121.3138504,0.0782470700000886
-84.95233154,-121.31575012,0.0782470700000886
-84.96621704,-121.33522034,0.0782470700000886
-84.96749878,-121.34977722,0.0782470700000886
-84.986763,-121.32614136,0.0782470700000886
-84.9706192,-121.30342865,0.0782470700000886
-84.96488953,-121.32128143,0.0783691400001771
-84.98628235,-121.31008911,0.0783691400001771
-84.96302795,-121.33310699,0.0783691400001771
-84.96009064,-121.33126831,0.0783691400001771
-84.96257019,-121.31996918,0.0784912100000383
-84.99533844,-121.34127808,0.0784912100000383
-84.9516983,-121.3020401,0.0784912100000383
-84.95159149,-121.30745697,0.0784912100000383
-84.9576416,-121.3296814,0.0784912100000383
-84.95562744,-121.32987213,0.0784912100000383
-84.9566803,-121.34082794,0.0784912100000383
-84.95580292,-121.32462311,0.0786132800001269
-84.99835968,-121.30770874,0.0786132800001269
-84.96927643,-121.33329773,0.0787353500002155
-84.96318054,-121.33611298,0.0787353500002155
-84.95835876,-121.29605103,0.0788574200000767
-84.99900055,-121.30348206,0.0788574200000767
-84.96656799,-121.33171082,0.0788574200000767
-84.96099091,-121.31851959,0.0788574200000767
-84.96759033,-121.33899689,0.0788574200000767
-84.97692871,-121.30454254,0.0788574200000767
-84.9683075,-121.34324646,0.0788574200000767
-84.97364044,-121.33769226,0.0789795000000595
-84.96750641,-121.33374023,0.0789795000000595
-84.96478271,-121.33315277,0.0789795000000595
-84.96772003,-121.33499908,0.0789795000000595
-84.99346924,-121.30326843,0.0789795000000595
-84.99436951,-121.31504822,0.0789795000000595
-84.96398163,-121.29972839,0.0791015700001481
-84.96463013,-121.3221283,0.0791015700001481
-84.95126343,-121.32544708,0.0791015700001481
-84.96147156,-121.29257202,0.0792236400000093
-84.9712677,-121.33730316,0.0792236400000093
-84.96878052,-121.33883667,0.0792236400000093
-84.96629333,-121.29338837,0.0793457100000978
-84.96515656,-121.32113647,0.0793457100000978
-84.95594788,-121.3273468,0.0793457100000978
-84.99349213,-121.32131195,0.0793457100000978
-84.9557724,-121.28630829,0.0793457100000978
-84.98842621,-121.34983063,0.0794677800001864
-84.95004272,-121.30888367,0.0794677800001864
-84.95465088,-121.31329346,0.0794677800001864
-84.95918274,-121.32820129,0.0794677800001864
-84.96269226,-121.33557129,0.0794677800001864
-84.95623016,-121.32634735,0.0795898500000476
-84.95353699,-121.31649017,0.0797119200001362
-84.96264648,-121.32103729,0.0797119200001362
-84.95688629,-121.32911682,0.0797119200001362
-84.95583344,-121.32333374,0.0797119200001362
-84.97699738,-121.302742,0.0798339900002247
-84.96105957,-121.29245758,0.0798339900002247
-84.9600296,-121.29342651,0.0798339900002247
-84.95681,-121.3158493,0.0798339900002247
-84.95674896,-121.34912872,0.0798339900002247
-84.97956085,-121.32157898,0.0798339900002247
-84.97312927,-121.33738708,0.0799560600000859
-84.96019745,-121.31945801,0.0799560600000859
-84.95659637,-121.33035278,0.0799560600000859
-84.95484924,-121.30477142,0.0799560600000859
-84.99430847,-121.33760071,0.0800781300001745
-84.97094727,-121.29627991,0.0800781300001745
-84.95378113,-121.32475281,0.0800781300001745
-84.9650116,-121.33336639,0.0802002000000357
-84.96324158,-121.34932709,0.0802002000000357
-84.96396637,-121.30709076,0.0803222700001243
-84.9646225,-121.32866669,0.0803222700001243
-84.95095825,-121.3108902,0.0803222700001243
-84.9988327,-121.30478668,0.0803222700001243
-84.95896912,-121.31864929,0.0804443400002128
-84.96193695,-121.33525848,0.0804443400002128
-84.96273804,-121.29506683,0.0806884800001626
-84.96315765,-121.31797028,0.0806884800001626
-84.97561646,-121.34545898,0.0806884800001626
-84.95922852,-121.34942627,0.0806884800001626
-84.95568848,-121.32730103,0.0806884800001626
-84.98921967,-121.34629059,0.0808105500000238
-84.9509201,-121.30435944,0.0808105500000238
-84.95039368,-121.30509949,0.0808105500000238
-84.96411133,-121.32981873,0.0808105500000238
-84.95532227,-121.32302856,0.0808105500000238
-84.9679718,-121.34996033,0.0808105500000238
-84.96492767,-121.34494019,0.0809326200001124
-84.96376801,-121.33255005,0.0809326200001124
-84.95127869,-121.29650116,0.0809326200001124
-84.97344971,-121.3325882,0.0809326200001124
-84.97522736,-121.34777069,0.0810546900002009
-84.98309326,-121.32700348,0.0811767600000621
-84.95703888,-121.31606293,0.0812988300001507
-84.95793915,-121.29654694,0.0814209000000119
-84.96450806,-121.32200623,0.0814209000000119
-84.95155334,-121.32337952,0.0814209000000119
-84.96118927,-121.29254913,0.0815429700001005
-84.97168732,-121.34279633,0.0815429700001005
-84.9748764,-121.34490204,0.081665040000189
-84.95993042,-121.32714844,0.081665040000189
-84.95446014,-121.31044769,0.0817871100000502
-84.9624176,-121.33548737,0.0817871100000502
-84.98780823,-121.31950378,0.0817871100000502
-84.96527863,-121.34755707,0.0817871100000502
-84.9936676,-121.34686279,0.0819091800001388
-84.97238159,-121.33680725,0.0819091800001388
-84.99469757,-121.32102966,0.0819091800001388
-84.96556091,-121.32585907,0.08203125
-84.95098877,-121.3093338,0.08203125
-84.954422,-121.31169128,0.0821533200000886
-84.97689819,-121.30446625,0.0821533200000886
-84.97905731,-121.29997253,0.0822753900001771
-84.95571899,-121.30996704,0.0822753900001771
-84.96325684,-121.3025589,0.0823974600000383
-84.95870209,-121.32633972,0.0823974600000383
-84.96611023,-121.34382629,0.0823974600000383
-84.96143341,-121.33493042,0.0825195300001269
-84.9812088,-121.30303192,0.0826416000002155
-84.9586792,-121.29403687,0.0827636700000767
-84.96115875,-121.34896851,0.0827636700000767
-84.95702362,-121.32402039,0.0827636700000767
-84.95379639,-121.32315826,0.0827636700000767
-84.96851349,-121.29335022,0.0828857500000595
-84.96626282,-121.29328156,0.0828857500000595
-84.95310211,-121.30561829,0.0828857500000595
-84.97387695,-121.33631134,0.0831298900000093
-84.95571136,-121.34394836,0.0831298900000093
-84.95024109,-121.309021,0.0832519600000978
-84.96922302,-121.34116364,0.0832519600000978
-84.96256256,-121.29550934,0.0833740300001864
-84.96325684,-121.30992889,0.0833740300001864
-84.99051666,-121.30880737,0.0833740300001864
-84.98757935,-121.34722137,0.0833740300001864
-84.97860718,-121.3468399,0.0833740300001864
-84.95397949,-121.32489014,0.0834961000000476
-84.95081329,-121.32254028,0.0834961000000476
-84.95121002,-121.31755066,0.0834961000000476
-84.95253754,-121.30626678,0.0836181700001362
-84.96424103,-121.29344177,0.0836181700001362
-84.96604919,-121.32338715,0.0837402400002247
-84.96481323,-121.3210907,0.0838623100000859
-84.99645996,-121.34441376,0.0838623100000859
-84.96829224,-121.34770203,0.0838623100000859
-84.99919128,-121.30357361,0.0838623100000859
-84.99685669,-121.30599976,0.0838623100000859
-84.95166016,-121.30354309,0.0838623100000859
-84.95590973,-121.31143188,0.0838623100000859
-84.95549774,-121.30841064,0.0839843800001745
-84.95556641,-121.32192993,0.0839843800001745
-84.9552002,-121.29701233,0.0841064500000357
-84.95056152,-121.30538177,0.0841064500000357
-84.9611969,-121.29268646,0.0842285200001243
-84.97956848,-121.29891968,0.0842285200001243
-84.95451355,-121.32363892,0.0842285200001243
-84.9852829,-121.32652283,0.0842285200001243
-84.99162292,-121.34693146,0.0843505900002128
-84.95921326,-121.3332901,0.0843505900002128
-84.99362946,-121.34677124,0.084472660000074
-84.99495697,-121.31017303,0.084472660000074
-84.98033905,-121.29818726,0.084472660000074
-84.9734726,-121.29396057,0.084472660000074
-84.95581818,-121.30615234,0.084472660000074
-84.96897125,-121.34085846,0.084472660000074
-84.9599762,-121.32454681,0.0845947300001626
-84.96993256,-121.34989929,0.0845947300001626
-84.97805786,-121.30393982,0.0845947300001626
-84.96170044,-121.34674072,0.0847168000000238
-84.97651672,-121.33934784,0.0847168000000238
-84.97122955,-121.29363251,0.0847168000000238
-84.9545517,-121.30661011,0.0847168000000238
-84.96360779,-121.33618164,0.0847168000000238
-84.96666718,-121.33451843,0.0847168000000238
-84.95008087,-121.34240723,0.0847168000000238
-84.99635315,-121.30570221,0.0848388700001124
-84.96322632,-121.30246735,0.0849609400002009
-84.97068787,-121.29460907,0.0849609400002009
-84.96868896,-121.29479218,0.0849609400002009
-84.96206665,-121.29057312,0.0849609400002009
-84.95217896,-121.28675079,0.0850830100000621
-84.99466705,-121.32095337,0.0850830100000621
-84.96791077,-121.30402374,0.0850830100000621
-84.95953369,-121.29148102,0.0852050800001507
-84.95960999,-121.31250763,0.0852050800001507
-84.95585632,-121.28912354,0.0852050800001507
-84.96135712,-121.34844971,0.0852050800001507
-84.99743652,-121.3405838,0.0853271500000119
-84.95256805,-121.28981018,0.0853271500000119
-84.9628067,-121.29434967,0.085571290000189
-84.95539856,-121.2875824,0.085571290000189
-84.95870209,-121.33299255,0.085571290000189
-84.95404816,-121.30631256,0.0856933600000502
-84.99046326,-121.34638214,0.0856933600000502
-84.99034119,-121.30573273,0.0858154300001388
-84.95448303,-121.28639221,0.0858154300001388
-84.96321869,-121.31725311,0.0859375
-84.9590683,-121.28993988,0.0859375
-84.95834351,-121.3129425,0.0859375
-84.99593353,-121.31065369,0.0860595700000886
-84.9571991,-121.30940247,0.0860595700000886
-84.9701767,-121.34159851,0.0860595700000886
-84.95345306,-121.34832001,0.0860595700000886
-84.95401001,-121.3444519,0.0860595700000886
-84.9642868,-121.32238007,0.0861816400001771
-84.95110321,-121.30313873,0.0861816400001771
-84.96189117,-121.32707214,0.0861816400001771
-84.9937973,-121.29972839,0.0861816400001771
-84.96434784,-121.29808807,0.0863037100000383
-84.99875641,-121.33592224,0.0864257800001269
-84.95910645,-121.31220245,0.0864257800001269
-84.96746826,-121.33999634,0.0864257800001269
-84.95139313,-121.30319214,0.0865478500002155
-84.95314026,-121.28748322,0.0865478500002155
-84.99983215,-121.31590271,0.0865478500002155
-84.97612,-121.30171204,0.0865478500002155
-84.9761734,-121.34747314,0.0865478500002155
-84.95445251,-121.29962158,0.0866699200000767
-84.95506287,-121.30555725,0.0866699200000767
-84.9568634,-121.31186676,0.0866699200000767
-84.96092224,-121.29264832,0.0867920000000595
-84.9643631,-121.3128891,0.0867920000000595
-84.9779129,-121.29502869,0.0867920000000595
-84.97615051,-121.29547119,0.0867920000000595
-84.96278381,-121.29103851,0.0867920000000595
-84.95628357,-121.32235718,0.0867920000000595
-84.95269012,-121.31723785,0.0867920000000595
-84.95574951,-121.33110046,0.0867920000000595
-84.99903107,-121.30722046,0.0869140700001481
-84.95178986,-121.34764099,0.0869140700001481
-84.96527863,-121.32598114,0.0870361400000093
-84.95098877,-121.29649353,0.0870361400000093
-84.98500824,-121.29975891,0.0870361400000093
-84.98963165,-121.3039093,0.0870361400000093
-84.97647858,-121.29297638,0.0870361400000093
-84.95645142,-121.28556824,0.0870361400000093
-84.95420074,-121.28549957,0.0870361400000093
-84.95659637,-121.34063721,0.0870361400000093
-84.96180725,-121.34610748,0.0871582100000978
-84.95713806,-121.28733826,0.0871582100000978
-84.95612335,-121.28806305,0.0871582100000978
-84.98111725,-121.32746887,0.0871582100000978
-84.96832275,-121.33390045,0.0871582100000978
-84.95606995,-121.29389954,0.0872802800001864
-84.96199799,-121.31387329,0.0872802800001864
-84.96235657,-121.3275528,0.0872802800001864
-84.97103882,-121.34586334,0.0872802800001864
-84.96414185,-121.33769989,0.0874023500000476
-84.95411682,-121.31125641,0.0874023500000476
-84.96141815,-121.32550812,0.0874023500000476
-84.96035767,-121.33522797,0.0874023500000476
-84.99334717,-121.30476379,0.0875244200001362
-84.97724152,-121.2922287,0.0875244200001362
-84.95810699,-121.32740021,0.0876464900002247
-84.96427917,-121.33786011,0.0876464900002247
-84.95353699,-121.2895813,0.0876464900002247
-84.95709991,-121.3006134,0.0876464900002247
-84.9642868,-121.29055023,0.0877685600000859
-84.99485016,-121.30455017,0.0880127000000357
-84.95545959,-121.28500366,0.0880127000000357
-84.96056366,-121.3132019,0.0880127000000357
-84.95105743,-121.27477264,0.0880127000000357
-84.95169067,-121.30116272,0.0881347700001243
-84.97659302,-121.29695129,0.0881347700001243
-84.95407104,-121.28144836,0.0881347700001243
-84.95758057,-121.31234741,0.0881347700001243
-84.9956665,-121.30230713,0.0882568400002128
-84.96163177,-121.28743744,0.088378910000074
-84.99025726,-121.32193756,0.088378910000074
-84.98872375,-121.34664154,0.088378910000074
-84.9640274,-121.29908752,0.0885009800001626
-84.97693634,-121.29344177,0.0885009800001626
-84.96424866,-121.32230377,0.0886230500000238
-84.97776794,-121.29096222,0.0886230500000238
-84.97653961,-121.29817963,0.0886230500000238
-84.95487976,-121.31073761,0.0886230500000238
-84.95626831,-121.2796402,0.0886230500000238
-84.99427032,-121.29958344,0.0886230500000238
-84.95297241,-121.29627228,0.0887451200001124
-84.96259308,-121.32750702,0.0887451200001124
-84.96083069,-121.33570862,0.0887451200001124
-84.95233917,-121.28037262,0.0888671900002009
-84.95462799,-121.31848907,0.0888671900002009
-84.95446777,-121.28418732,0.0889892600000621
-84.95320129,-121.28489685,0.0889892600000621
-84.95140076,-121.30185699,0.0889892600000621
-84.97907257,-121.29724121,0.0891113300001507
-84.95966339,-121.28610992,0.0891113300001507
-84.95966339,-121.30963135,0.0891113300001507
-84.95250702,-121.2828598,0.0893554700001005
-84.96798706,-121.29136658,0.0893554700001005
-84.96353149,-121.31349945,0.089477540000189
-84.95899963,-121.32235718,0.089477540000189
-84.9780426,-121.28993988,0.0895996100000502
-84.95336151,-121.31091309,0.0895996100000502
-84.96524048,-121.31846619,0.0897216800001388
-84.98204041,-121.29782104,0.0897216800001388
-84.9780426,-121.29794312,0.0897216800001388
-84.95165253,-121.30960083,0.0897216800001388
-84.9601593,-121.29524994,0.08984375
-84.96069336,-121.3015213,0.08984375
-84.98972321,-121.30007172,0.08984375
-84.95253754,-121.28160095,0.08984375
-84.96164703,-121.28614807,0.08984375
-84.96430206,-121.33731079,0.0899658200000886
-84.97239685,-121.29425049,0.0899658200000886
-84.99838257,-121.31633759,0.0900878900001771
-84.95506287,-121.29653931,0.0903320300001269
-84.9577179,-121.30728149,0.0903320300001269
-84.95240784,-121.31687164,0.0903320300001269
-84.95140839,-121.34812164,0.0903320300001269
-84.97149658,-121.30297852,0.0903320300001269
-84.96057129,-121.31813812,0.0904541000002155
-84.96360779,-121.33155823,0.0904541000002155
-84.97847748,-121.29167938,0.0904541000002155
-84.95317841,-121.28485107,0.0904541000002155
-84.96311188,-121.32646942,0.0904541000002155
-84.97429657,-121.3291626,0.0904541000002155
-84.99076843,-121.34951782,0.0904541000002155
-84.96286774,-121.31816101,0.0906982500000595
-84.97928619,-121.28968811,0.0906982500000595
-84.97753906,-121.28964233,0.0906982500000595
-84.96102142,-121.31337738,0.0906982500000595
-84.96421051,-121.31548309,0.0908203200001481
-84.98178864,-121.2975235,0.0909423900000093
-84.95697784,-121.30673218,0.0909423900000093
-84.96842194,-121.3323822,0.0909423900000093
-84.96031189,-121.34338379,0.0909423900000093
-84.96549988,-121.32952881,0.0910644600000978
-84.96592712,-121.3157196,0.0911865300001864
-84.99073029,-121.3217926,0.0911865300001864
-84.96613312,-121.3469162,0.0911865300001864
-84.9600296,-121.28856659,0.0913086000000476
-84.96874237,-121.29083252,0.0913086000000476
-84.96231842,-121.31185913,0.0914306700001362
-84.97193146,-121.29267883,0.0914306700001362
-84.96183777,-121.31112671,0.0914306700001362
-84.9622879,-121.31263733,0.0914306700001362
-84.95433807,-121.34217072,0.0914306700001362
-84.99617004,-121.29891968,0.0914306700001362
-84.96484375,-121.33509064,0.0915527400002247
-84.95558167,-121.27989197,0.0915527400002247
-84.95999908,-121.31381989,0.0915527400002247
-84.97898865,-121.34632874,0.0915527400002247
-84.9568634,-121.29049683,0.0916748100000859
-84.99308777,-121.34812927,0.0916748100000859
-84.97949219,-121.29868317,0.0916748100000859
-84.95398712,-121.28259277,0.0916748100000859
-84.96717834,-121.33155823,0.0916748100000859
-84.9643631,-121.3441925,0.0916748100000859
-84.95513153,-121.27810669,0.0917968800001745
-84.96881866,-121.28807068,0.0917968800001745
-84.95410919,-121.310112,0.0917968800001745
-84.97928619,-121.28939819,0.0919189500000357
-84.96591949,-121.28497314,0.0919189500000357
-84.95529938,-121.28061676,0.0919189500000357
-84.96636963,-121.28648376,0.0919189500000357
-84.96492004,-121.3317337,0.0919189500000357
-84.95559692,-121.34970093,0.0919189500000357
-84.95036316,-121.33863068,0.0919189500000357
-84.9829483,-121.2997818,0.0920410200001243
-84.9503479,-121.3024826,0.0920410200001243
-84.95974731,-121.32154846,0.0920410200001243
-84.95211029,-121.29963684,0.0921630900002128
-84.98664093,-121.29414368,0.0921630900002128
-84.98280334,-121.29676056,0.0921630900002128
-84.96027374,-121.28151703,0.0921630900002128
-84.96264648,-121.32463837,0.0921630900002128
-84.95648956,-121.2795105,0.0921630900002128
-84.96975708,-121.28983307,0.092285160000074
-84.95900726,-121.31326294,0.092285160000074
-84.95697021,-121.3066864,0.092285160000074
-84.95918274,-121.28206635,0.0924072300001626
-84.95931244,-121.29863739,0.0924072300001626
-84.96083832,-121.31056213,0.0924072300001626
-84.95401764,-121.30484009,0.0924072300001626
-84.98635864,-121.33808136,0.0924072300001626
-84.96469116,-121.28414917,0.0925293000000238
-84.97537231,-121.30196381,0.0925293000000238
-84.95966339,-121.29393005,0.0925293000000238
-84.9524231,-121.28450012,0.0926513700001124
-84.95977783,-121.31227112,0.0926513700001124
-84.95436859,-121.34864044,0.0926513700001124
-84.99933624,-121.31610107,0.0927734400002009
-84.96048737,-121.28713226,0.0930175800001507
-84.96308899,-121.33283997,0.0930175800001507
-84.98471069,-121.29930115,0.0930175800001507
-84.9750824,-121.34446716,0.0930175800001507
-84.96182251,-121.27979279,0.0931396500000119
-84.95982361,-121.27971649,0.0931396500000119
-84.97889709,-121.32800293,0.0931396500000119
-84.9617691,-121.3216095,0.0932617200001005
-84.98503113,-121.29705048,0.0932617200001005
-84.95671082,-121.27536774,0.0932617200001005
-84.95613861,-121.28536224,0.0932617200001005
-84.99729156,-121.34774017,0.0932617200001005
-84.96118927,-121.30895233,0.093383790000189
-84.96491241,-121.31591797,0.093383790000189
-84.95806122,-121.31118774,0.093383790000189
-84.97059631,-121.31784821,0.0935058600000502
-84.96594238,-121.31587219,0.0936279300001388
-84.98416138,-121.30052185,0.0936279300001388
-84.98265076,-121.29295349,0.09375
-84.97586823,-121.29373932,0.09375
-84.95465851,-121.2765274,0.09375
-84.95465851,-121.2842865,0.09375
-84.95568848,-121.30709839,0.09375
-84.9582901,-121.30979156,0.0938720700000886
-84.98384094,-121.29499054,0.0938720700000886
-84.98329926,-121.2959671,0.0938720700000886
-84.97979736,-121.29611206,0.0938720700000886
-84.95078278,-121.28993988,0.0938720700000886
-84.9879303,-121.34385681,0.0938720700000886
-84.99353027,-121.34667969,0.0939941400001771
-84.98243713,-121.29945374,0.0939941400001771
-84.96520233,-121.2831192,0.0939941400001771
-84.99723053,-121.30197144,0.0939941400001771
-84.95989227,-121.28495026,0.0941162100000383
-84.95886993,-121.30918884,0.0941162100000383
-84.95204163,-121.30371857,0.0941162100000383
-84.97840118,-121.2928009,0.0942382800001269
-84.96195221,-121.28192139,0.0943603500002155
-84.96425629,-121.32871246,0.0943603500002155
-84.97496033,-121.29067993,0.0943603500002155
-84.96666718,-121.31543732,0.0943603500002155
-84.99581146,-121.30806732,0.0943603500002155
-84.95393372,-121.29187775,0.0943603500002155
-84.98317719,-121.29194641,0.0944824200000767
-84.98468781,-121.29924774,0.0944824200000767
-84.96351624,-121.31208038,0.0944824200000767
-84.959198,-121.28222656,0.0946045000000595
-84.95607758,-121.27880096,0.0946045000000595
-84.99120331,-121.32163239,0.0946045000000595
-84.98091888,-121.30037689,0.0946045000000595
-84.96018982,-121.34234619,0.0946045000000595
-84.9605484,-121.31822968,0.0947265700001481
-84.99256897,-121.29524994,0.0947265700001481
-84.96204376,-121.27999878,0.0947265700001481
-84.95996857,-121.28243256,0.0947265700001481
-84.95841217,-121.27636719,0.0947265700001481
-84.95031738,-121.30239105,0.0947265700001481
-84.97041321,-121.33132172,0.0947265700001481
-84.97257996,-121.33389282,0.0948486400000093
-84.96317291,-121.34066772,0.0949707100000978
-84.95144653,-121.30146027,0.0949707100000978
-84.95567322,-121.30706024,0.0949707100000978
-84.95011902,-121.3008728,0.0949707100000978
-84.98924255,-121.33724213,0.0949707100000978
-84.95562744,-121.27702332,0.0952148500000476
-84.95263672,-121.28443146,0.0952148500000476
-84.97180939,-121.28730011,0.0952148500000476
-84.95297241,-121.30545807,0.0952148500000476
-84.97918701,-121.34339905,0.0952148500000476
-84.98542023,-121.29199219,0.0953369200001362
-84.97598267,-121.28993225,0.0953369200001362
-84.96507263,-121.30193329,0.0954589900002247
-84.98471832,-121.29797363,0.0954589900002247
-84.95922089,-121.28212738,0.0954589900002247
-84.99033356,-121.30040741,0.0954589900002247
-84.98840332,-121.30033875,0.0955810600000859
-84.96044159,-121.31420135,0.0955810600000859
-84.95635986,-121.28529358,0.0955810600000859
-84.99807739,-121.31626892,0.0955810600000859
-84.98007202,-121.33712769,0.0955810600000859
-84.96605682,-121.32266998,0.0957031300001745
-84.96121979,-121.31321716,0.0957031300001745
-84.95133972,-121.29363251,0.0957031300001745
-84.96349335,-121.30046082,0.0958252000000357
-84.96125793,-121.32289124,0.0958252000000357
-84.96360016,-121.34770203,0.0958252000000357
-84.97399902,-121.33589935,0.0958252000000357
-84.9697113,-121.32926178,0.0958252000000357
-84.95968628,-121.34545135,0.0958252000000357
-84.95812988,-121.27606964,0.0958252000000357
-84.95223236,-121.28682709,0.0958252000000357
-84.95329285,-121.29438782,0.0959472700001243
-84.96204376,-121.28746033,0.0959472700001243
-84.95604706,-121.34958649,0.0959472700001243
-84.98838806,-121.29255676,0.0960693400002128
-84.95095825,-121.28183746,0.0960693400002128
-84.96309662,-121.28549194,0.0960693400002128
-84.96112823,-121.32372284,0.0960693400002128
-84.96032715,-121.31105804,0.096191410000074
-84.98348999,-121.29715729,0.096191410000074
-84.96125793,-121.31195068,0.096191410000074
-84.96407318,-121.32556152,0.096191410000074
-84.96011353,-121.29525757,0.0963134800001626
-84.96166992,-121.2818985,0.0964355500000238
-84.95066833,-121.29083252,0.0964355500000238
-84.95529175,-121.28807831,0.0965576200001124
-84.98773956,-121.29727936,0.0965576200001124
-84.98645782,-121.29798889,0.0965576200001124
-84.95762634,-121.31160736,0.0966796900002009
-84.98478699,-121.29543304,0.0966796900002009
-84.96884918,-121.31668854,0.0966796900002009
-84.96917725,-121.28291321,0.0968017600000621
-84.98776245,-121.30721283,0.0968017600000621
-84.98777008,-121.29602051,0.0969238300001507
-84.95948792,-121.28083801,0.0969238300001507
-84.9611969,-121.28997803,0.0969238300001507
-84.96108246,-121.27787781,0.0970459000000119
-84.96058655,-121.2853775,0.0970459000000119
-84.95707703,-121.28575897,0.0970459000000119
-84.96475983,-121.28800964,0.0971679700001005
-84.99771881,-121.31984711,0.0971679700001005
-84.97351074,-121.32914734,0.0971679700001005
-84.96926117,-121.29512024,0.097290040000189
-84.96589661,-121.29862213,0.097290040000189
-84.96774292,-121.28085327,0.097290040000189
-84.99842834,-121.30166626,0.097290040000189
-84.97167206,-121.28321838,0.0974121100000502
-84.96504974,-121.27899933,0.0974121100000502
-84.9681015,-121.31639099,0.0974121100000502
-84.9694519,-121.32894897,0.0974121100000502
-84.95925903,-121.32196045,0.0975341800001388
-84.95713806,-121.28101349,0.0975341800001388
-84.95886993,-121.27655029,0.0975341800001388
-84.95588684,-121.28370667,0.0975341800001388
-84.96291351,-121.31446838,0.0975341800001388
-84.95355988,-121.29389191,0.0975341800001388
-84.98597717,-121.34439087,0.0975341800001388
-84.96396637,-121.3225174,0.09765625
-84.96299744,-121.28819275,0.09765625
-84.95903778,-121.31033325,0.09765625
-84.9557724,-121.31098175,0.09765625
-84.9914093,-121.30905914,0.09765625
-84.9889679,-121.33721924,0.09765625
-84.96173096,-121.31217194,0.0977783200000886
-84.95204926,-121.30209351,0.0977783200000886
-84.98690033,-121.34116364,0.0977783200000886
-84.99385071,-121.34467316,0.0979003900001771
-84.97696686,-121.28913116,0.0979003900001771
-84.96482849,-121.27773285,0.0979003900001771
-84.98561096,-121.3355484,0.0979003900001771
-84.98927307,-121.29577637,0.0980224600000383
-84.95989227,-121.27581024,0.0980224600000383
-84.99176788,-121.3474884,0.0980224600000383
-84.96246338,-121.27963257,0.0981445300001269
-84.96282959,-121.27765656,0.0981445300001269
-84.9617691,-121.27961731,0.0981445300001269
-84.96527863,-121.2869873,0.0981445300001269
-84.9613266,-121.34793091,0.0981445300001269
-84.9941864,-121.29937744,0.0981445300001269
-84.99326324,-121.34532166,0.0981445300001269
-84.98623657,-121.2964325,0.0982666000002155
-84.95987701,-121.32285309,0.0982666000002155
-84.99617767,-121.33625031,0.0983886700000767
-84.97193909,-121.28220367,0.0983886700000767
-84.95897675,-121.27277374,0.0983886700000767
-84.95426941,-121.2800293,0.0983886700000767
-84.98848724,-121.29649353,0.0985107500000595
-84.95600128,-121.311203,0.0986328200001481
-84.96948242,-121.2806015,0.0987548900000093
-84.96264648,-121.27513123,0.0987548900000093
-84.96195984,-121.28111267,0.0987548900000093
-84.95613098,-121.28368378,0.0987548900000093
-84.95076752,-121.29476166,0.0987548900000093
-84.9561615,-121.30619812,0.0987548900000093
-84.96282196,-121.30226898,0.0988769600000978
-84.96394348,-121.31378937,0.0988769600000978
-84.96063995,-121.32495117,0.0988769600000978
-84.97798157,-121.28862762,0.0988769600000978
-84.95832825,-121.30876923,0.0988769600000978
-84.99501801,-121.29544067,0.0989990300001864
-84.95052338,-121.27897644,0.0989990300001864
-84.96273804,-121.28813934,0.0989990300001864
-84.95970917,-121.31230927,0.0989990300001864
-84.95011902,-121.30725098,0.0989990300001864
-84.97821045,-121.33618164,0.0991211000000476
-84.96607971,-121.27722931,0.0991211000000476
-84.96125793,-121.27931976,0.0991211000000476
-84.95072174,-121.2884903,0.0991211000000476
-84.95645142,-121.29694366,0.0991211000000476
-84.95400238,-121.29535675,0.0991211000000476
-84.95427704,-121.31012726,0.0991211000000476
-84.98715973,-121.31362152,0.0991211000000476
-84.95702362,-121.31368256,0.0992431700001362
-85,-121.33006287,0.0992431700001362
-84.96090698,-121.34838104,0.0992431700001362
-84.96188354,-121.27584076,0.0992431700001362
-84.95963287,-121.2755127,0.0992431700001362
-84.95378876,-121.30184937,0.0992431700001362
-84.96099091,-121.27503204,0.0993652400002247
-84.96244812,-121.2869873,0.0993652400002247
-84.95500946,-121.29488373,0.0993652400002247
-84.95871735,-121.29976654,0.0994873100000859
-84.96743011,-121.3097229,0.0994873100000859
-84.99423981,-121.29614258,0.0994873100000859
-84.97097778,-121.28038025,0.0994873100000859
-84.95738983,-121.28318787,0.0994873100000859
-84.99897766,-121.29654694,0.0996093800001745
-84.96579742,-121.27819824,0.0996093800001745
-84.95352173,-121.27735138,0.0996093800001745
-84.95868683,-121.28366852,0.0997314500000357
-84.95910645,-121.30657959,0.0997314500000357
-84.9553833,-121.28337097,0.0997314500000357
-84.95614624,-121.3061676,0.0997314500000357
-84.99292755,-121.3493576,0.0997314500000357
-84.99710083,-121.313797,0.0997314500000357
-84.95500946,-121.29512024,0.0997314500000357
-84.9683075,-121.29801941,0.0998535200001243
-84.98577881,-121.29460907,0.0998535200001243
-84.98072052,-121.28868866,0.0998535200001243
-84.95578003,-121.29414368,0.0998535200001243
-84.96497345,-121.28817749,0.0999755900002128
-84.95896912,-121.31175995,0.0999755900002128
-84.95507813,-121.2923584,0.0999755900002128
-84.99394989,-121.29711914,0.100097660000074
-84.95349884,-121.2950592,0.100097660000074
-84.98287964,-121.32726288,0.100097660000074
-84.96311951,-121.33204651,0.100219730000163
-84.99159241,-121.33773041,0.100219730000163
-84.95214081,-121.27401733,0.100219730000163
-84.95285034,-121.34127808,0.100219730000163
-84.95638275,-121.28362274,0.100341800000024
-84.98329926,-121.34081268,0.100341800000024
-84.96186066,-121.27580261,0.100341800000024
-84.96843719,-121.32832336,0.100341800000024
-84.99646759,-121.32000732,0.100341800000024
-84.98874664,-121.29544067,0.100463870000112
-84.97730255,-121.30980682,0.100463870000112
-84.99067688,-121.29775238,0.100585940000201
-84.95570374,-121.28085327,0.100585940000201
-84.98246765,-121.32949066,0.100585940000201
-84.96385956,-121.28153992,0.100708010000062
-84.9648819,-121.32578278,0.100708010000062
-84.95786285,-121.28366852,0.100708010000062
-84.97299194,-121.3291626,0.100708010000062
-84.95320129,-121.29627228,0.100830080000151
-84.96498871,-121.30174255,0.100952150000012
-84.96472168,-121.28788757,0.100952150000012
-84.95482635,-121.29206848,0.100952150000012
-84.98845673,-121.33724213,0.100952150000012
-84.96970367,-121.2885437,0.1010742200001
-84.96967316,-121.28954315,0.1010742200001
-84.99523163,-121.33914185,0.101196290000189
-84.98703003,-121.29411316,0.101196290000189
-84.96495819,-121.28038025,0.101196290000189
-84.95422363,-121.27977753,0.10131836000005
-84.95098877,-121.29493713,0.10131836000005
-84.95095825,-121.28692627,0.10131836000005
-84.95767975,-121.29665375,0.101440430000139
-84.99227905,-121.33905029,0.101440430000139
-84.96272278,-121.32646179,0.1015625
-84.98223877,-121.28742981,0.1015625
-84.98593903,-121.34385681,0.1015625
-84.96182251,-121.28452301,0.1015625
-84.97860718,-121.28356171,0.101684570000089
-84.96927643,-121.27799988,0.101684570000089
-84.96634674,-121.31494141,0.101806640000177
-84.96315765,-121.31307983,0.101806640000177
-84.95493317,-121.27677917,0.101806640000177
-84.97844696,-121.34644318,0.101806640000177
-84.9594574,-121.30462646,0.101928710000038
-84.9624176,-121.27351379,0.101928710000038
-84.96353149,-121.27806091,0.101928710000038
-84.98590088,-121.31378174,0.101928710000038
-84.95658875,-121.28222656,0.102050780000127
-84.98052216,-121.28636169,0.102050780000127
-84.96531677,-121.27661133,0.102050780000127
-84.96970367,-121.28826141,0.102050780000127
-84.95935822,-121.30670166,0.102050780000127
-84.97926331,-121.31221008,0.102050780000127
-84.96037292,-121.27709198,0.102172850000215
-84.96334076,-121.33933258,0.102172850000215
-84.95694733,-121.2803421,0.102172850000215
-84.96537781,-121.28397369,0.102294920000077
-84.95227814,-121.28975677,0.102294920000077
-84.95497894,-121.30254364,0.102294920000077
-84.95127106,-121.30918121,0.102294920000077
-84.99450684,-121.33973694,0.102294920000077
-84.99279022,-121.30564117,0.102294920000077
-84.9730835,-121.34487152,0.102294920000077
-84.98999786,-121.29466248,0.102417000000059
-84.95616913,-121.29656982,0.102417000000059
-84.96143341,-121.3067627,0.102539070000148
-84.99939728,-121.34819031,0.102539070000148
-84.99804688,-121.30117798,0.102539070000148
-84.96260834,-121.31429291,0.102539070000148
-84.95555115,-121.27677917,0.102539070000148
-84.96192932,-121.29566193,0.102661140000009
-84.96505737,-121.30088806,0.102661140000009
-84.96543884,-121.28058624,0.102661140000009
-84.96527863,-121.28559875,0.102661140000009
-84.96253204,-121.27892303,0.102783210000098
-84.9588623,-121.30641174,0.102783210000098
-84.95526123,-121.27800751,0.102783210000098
-84.97119141,-121.28829193,0.102783210000098
-84.96768951,-121.28842163,0.102783210000098
-84.96527863,-121.32408142,0.102905280000186
-84.9615097,-121.30948639,0.102905280000186
-84.97638702,-121.28218842,0.102905280000186
-84.95948029,-121.27913666,0.102905280000186
-84.95358276,-121.27570343,0.102905280000186
-84.95606995,-121.28849792,0.102905280000186
-84.96562958,-121.31336975,0.103027350000048
-84.98758698,-121.29180908,0.103027350000048
-84.96188354,-121.28221893,0.103027350000048
-84.96550751,-121.2780838,0.103149420000136
-84.9935379,-121.32073975,0.103149420000136
-84.95432281,-121.29173279,0.103271490000225
-84.9758606,-121.31873322,0.103271490000225
-84.99584198,-121.31394958,0.103271490000225
-84.95449829,-121.34065247,0.103271490000225
-84.96417999,-121.33605194,0.103393560000086
-84.95108795,-121.29888153,0.103393560000086
-84.96186829,-121.29797363,0.103515630000174
-84.97073364,-121.30754089,0.103515630000174
-84.95259857,-121.29065704,0.103637700000036
-84.97202301,-121.32952881,0.103637700000036
-84.95815277,-121.27749634,0.103759770000124
-84.95321655,-121.28694916,0.103759770000124
-84.96530914,-121.3168869,0.103759770000124
-84.95912933,-121.31314087,0.103759770000124
-84.99633789,-121.342659,0.103759770000124
-84.95822906,-121.29434204,0.103881840000213
-84.98673248,-121.31002808,0.103881840000213
-84.95770264,-121.3428421,0.103881840000213
-84.98519135,-121.34439087,0.103881840000213
-84.96647644,-121.30412292,0.104003910000074
-84.9969635,-121.34020996,0.104003910000074
-84.99394989,-121.29598999,0.104003910000074
-84.97147369,-121.2792511,0.104003910000074
-84.96089172,-121.28166199,0.104003910000074
-84.99227142,-121.29367828,0.104125980000163
-84.97212219,-121.2900238,0.104125980000163
-84.9566803,-121.30354309,0.104125980000163
-84.95716858,-121.31181335,0.104125980000163
-84.98232269,-121.32952881,0.104125980000163
-84.97293854,-121.28778839,0.104248050000024
-84.96872711,-121.28665924,0.104248050000024
