"X","Y","Z"
-85.06217957,-121.46499634,0.150024410000015
-85.0555191,-121.45720673,0.150024410000015
-85.0699234,-121.45063782,0.150146480000103
-85.08049774,-121.45610046,0.150268549999964
-85.05992126,-121.4588089,0.150390620000053
-85.06102753,-121.45439148,0.150756839999985
-85.05445862,-121.46140289,0.150756839999985
-85.05821991,-121.46470642,0.150878910000074
-85.05973816,-121.45504761,0.151245120000112
-85.05821991,-121.46170044,0.151367189999974
-85.06063843,-121.4598999,0.15209961000005
-85.08027649,-121.45632935,0.152221680000139
-85.06083679,-121.45414734,0.152221680000139
-85.05581665,-121.46378326,0.152221680000139
-85.05822754,-121.45243835,0.15258788999995
-85.05938721,-121.46331787,0.152832030000127
-85.06401825,-121.46520233,0.153198239999938
-85.0716095,-121.45413971,0.153198239999938
-85.06484985,-121.45334625,0.153442380000115
-85.08735657,-121.45607758,0.153564449999976
-85.05960846,-121.46083832,0.153686520000065
-85.05911255,-121.45127869,0.153808589999926
-85.06115723,-121.45720673,0.153930660000015
-85.05525208,-121.46552277,0.154174799999964
-85.05947113,-121.46936798,0.154296870000053
-85.05944061,-121.45568848,0.154907229999935
-85.06269836,-121.45709229,0.154907229999935
-85.05943298,-121.46060181,0.155151370000112
-85.05795288,-121.45343018,0.155273439999974
-85.06916809,-121.45198822,0.155395510000062
-85.0598526,-121.45863342,0.155639650000012
-85.08776855,-121.46305847,0.155883789999962
-85.07064819,-121.45451355,0.15600586000005
-85.07209015,-121.45147705,0.156127930000139
-85.06587982,-121.46186829,0.156127930000139
-85.08952332,-121.45552826,0.156372070000089
-85.08670044,-121.457901,0.156372070000089
-85.06124878,-121.46351624,0.15649413999995
-85.08216858,-121.45703125,0.156738280000127
-85.06300354,-121.46366119,0.156738280000127
-85.05909729,-121.4626236,0.157592770000065
-85.06372833,-121.46749878,0.157592770000065
-85.07180786,-121.45120239,0.157714839999926
-85.08408356,-121.45887756,0.158325190000141
-85.0743103,-121.45118713,0.158447260000003
-85.09142303,-121.45861816,0.158691410000074
-85.08061218,-121.45448303,0.158691410000074
-85.06189728,-121.45281982,0.158691410000074
-85.06091309,-121.4655304,0.158813479999935
-85.0749588,-121.45593262,0.159057620000112
-85.07943726,-121.45010376,0.159179689999974
-85.07170868,-121.45349121,0.159179689999974
-85.06289673,-121.46595001,0.159179689999974
-85.06507111,-121.45760345,0.159790039999962
-85.06781006,-121.46759796,0.159790039999962
-85.08779907,-121.46211243,0.160522460000038
-85.06487274,-121.4540863,0.160644530000127
-85.06729889,-121.46154785,0.160644530000127
-85.06732178,-121.46137238,0.160644530000127
-85.06916046,-121.46997833,0.160888670000077
-85.05589294,-121.46642303,0.160888670000077
-85.06912231,-121.45187378,0.160888670000077
-85.08653259,-121.45851135,0.161376949999976
-85.09004211,-121.46312714,0.161865230000103
-85.05854797,-121.46488953,0.161865230000103
-85.08785248,-121.45258331,0.162231440000141
-85.06915283,-121.4642334,0.162231440000141
-85.05989075,-121.46399689,0.162353510000003
-85.08786011,-121.46125031,0.162475589999985
-85.07263184,-121.45802307,0.162719729999935
-85.05893707,-121.45726776,0.162963870000112
-85.05988312,-121.46125793,0.163330080000151
-85.05835724,-121.46465302,0.163330080000151
-85.07029724,-121.46608734,0.163452150000012
-85.06945038,-121.46727753,0.163452150000012
-85.06407928,-121.45256042,0.163696289999962
-85.06147766,-121.46665192,0.163696289999962
-85.08518219,-121.45458221,0.164428710000038
-85.08811188,-121.46009827,0.164428710000038
-85.06282806,-121.46576691,0.164428710000038
-85.09033966,-121.45118713,0.164916989999938
-85.06993866,-121.46808624,0.164916989999938
-85.06310272,-121.46881104,0.164916989999938
-85.07013702,-121.45844269,0.165161130000115
-85.06880188,-121.46349335,0.165283199999976
-85.06391144,-121.45231628,0.165405270000065
-85.05708313,-121.46257019,0.165405270000065
-85.08660889,-121.45781708,0.165649410000015
-85.0689621,-121.45278931,0.165649410000015
-85.06285858,-121.46578979,0.165649410000015
-85.06839752,-121.46872711,0.165771480000103
-85.08280182,-121.45423889,0.166137690000141
-85.07540131,-121.45552063,0.166137690000141
-85.07112122,-121.45461273,0.166503910000074
-85.06269836,-121.46829987,0.166625979999935
-85.09664154,-121.46437836,0.166748050000024
-85.06994629,-121.46536255,0.166748050000024
-85.07285309,-121.45678711,0.166870120000112
-85.06330109,-121.45104218,0.166992189999974
-85.06697083,-121.45187378,0.167114260000062
-85.07817078,-121.45413971,0.167114260000062
-85.06555939,-121.46727753,0.167358400000012
-85.06533813,-121.46048737,0.1674804700001
-85.06825256,-121.46824646,0.1674804700001
-85.07315826,-121.45046997,0.1674804700001
-85.09214783,-121.45506287,0.167602539999962
-85.06159973,-121.46346283,0.16772461000005
-85.0835495,-121.46040344,0.16796875
-85.08680725,-121.45639801,0.168090820000089
-85.08068848,-121.45279694,0.168334960000038
-85.07222748,-121.45646667,0.168334960000038
-85.06186676,-121.4667511,0.168457030000127
-85.0710907,-121.45452881,0.168579099999988
-85.06228638,-121.46479034,0.168945310000026
-85.092453,-121.45288849,0.169067380000115
-85.09068298,-121.47753143,0.169189449999976
-85.06648254,-121.46260834,0.169189449999976
-85.06704712,-121.45967865,0.169433589999926
-85.06607819,-121.46459198,0.169433589999926
-85.06381989,-121.46466827,0.169433589999926
-85.05899811,-121.46555328,0.169799799999964
-85.0918808,-121.46370697,0.169921870000053
-85.0953598,-121.46938324,0.169921870000053
-85.06226349,-121.45275879,0.169921870000053
-85.05991364,-121.46360779,0.170043940000141
-85.09346008,-121.46640778,0.171020510000062
-85.07071686,-121.45527649,0.171020510000062
-85.06208038,-121.45552063,0.171142580000151
-85.07315826,-121.45475769,0.171264650000012
-85.08857727,-121.45768738,0.1713867200001
-85.0627594,-121.45332336,0.1713867200001
-85.05592346,-121.4542923,0.17163086000005
-85.06102753,-121.45645905,0.17211913999995
-85.05544281,-121.4509964,0.17211913999995
-85.07377625,-121.46022034,0.172241210000038
-85.05461121,-121.45847321,0.172363280000127
-85.08110809,-121.45127869,0.172607420000077
-85.09130096,-121.4573288,0.172973630000115
-85.05599976,-121.46334839,0.172973630000115
-85.09401703,-121.47412872,0.173095699999976
-85.06079102,-121.45043945,0.173217770000065
-85.09303284,-121.4595108,0.173339839999926
-85.08850098,-121.4573822,0.173339839999926
-85.05991364,-121.45213318,0.173583980000103
-85.08171844,-121.4567337,0.173828120000053
-85.0960083,-121.46652222,0.174072260000003
-85.05200958,-121.4540329,0.174438479999935
-85.08020782,-121.45713806,0.174438479999935
-85.06865692,-121.46588135,0.174804689999974
-85.0602417,-121.45493317,0.174926760000062
-85.08644867,-121.45619965,0.175048830000151
-85.07727814,-121.45630646,0.175415039999962
-85.09313965,-121.45889282,0.17553711000005
-85.06376648,-121.45497131,0.175903320000089
-85.07948303,-121.45709991,0.17602538999995
-85.08154297,-121.45716858,0.176513670000077
-85.06871033,-121.46591187,0.176513670000077
-85.07431793,-121.45282745,0.176757810000026
-85.06468964,-121.45657349,0.177001949999976
-85.07431793,-121.45561981,0.177124020000065
-85.08422089,-121.45658112,0.177368160000015
-85.09094238,-121.45825195,0.177490230000103
-85.06520844,-121.46289063,0.177490230000103
-85.05989838,-121.46672821,0.177490230000103
-85.05254364,-121.45487213,0.177490230000103
-85.06717682,-121.45703125,0.177734370000053
-85.08866882,-121.45715332,0.178344729999935
-85.070961,-121.46034241,0.178344729999935
-85.06965637,-121.46099091,0.178588870000112
-85.08558655,-121.45957184,0.178710939999974
-85.06456757,-121.46511078,0.178710939999974
-85.06860352,-121.46819305,0.178710939999974
-85.09217834,-121.4617691,0.178833010000062
-85.07575989,-121.4626236,0.178833010000062
-85.06105042,-121.46859741,0.178955080000151
-85.07866669,-121.45944977,0.179077150000012
-85.08154297,-121.45732117,0.179321289999962
-85.0716629,-121.46141052,0.179321289999962
-85.06894684,-121.45442963,0.17944336000005
-85.05371857,-121.45348358,0.17944336000005
-85.07415009,-121.46813202,0.179565430000139
-85.06993866,-121.47382355,0.179565430000139
-85.06243896,-121.47348022,0.179565430000139
-85.06596375,-121.47025299,0.179809570000089
-85.07228088,-121.4536972,0.17993163999995
-85.07453156,-121.46340179,0.17993163999995
-85.07019043,-121.47084045,0.17993163999995
-85.09932709,-121.47045898,0.180053710000038
-85.07151031,-121.46064758,0.180053710000038
-85.0588913,-121.46141815,0.180175780000127
-85.05526733,-121.45310974,0.180175780000127
-85.07237244,-121.45336151,0.180297849999988
-85.07428741,-121.45555115,0.180297849999988
-85.09339905,-121.46527863,0.180541989999938
-85.06513977,-121.47145081,0.180541989999938
-85.08574677,-121.459198,0.180664060000026
-85.06887817,-121.47501373,0.180664060000026
-85.07305908,-121.46983337,0.181030270000065
-85.07433319,-121.45688629,0.181274410000015
-85.07463837,-121.46894836,0.181274410000015
-85.0640564,-121.47589111,0.181274410000015
-85.07169342,-121.45542908,0.181396480000103
-85.07901001,-121.45749664,0.181518549999964
-85.0719223,-121.46637726,0.181518549999964
-85.07414246,-121.46264648,0.181640620000053
-85.08750153,-121.46376038,0.181640620000053
-85.06471252,-121.47418976,0.181762690000141
-85.0682373,-121.46769714,0.182006839999985
-85.07553864,-121.4675293,0.182250979999935
-85.07398224,-121.47142029,0.182250979999935
-85.08582306,-121.45834351,0.182617189999974
-85.07261658,-121.45677185,0.182617189999974
-85.07437134,-121.45690918,0.182739260000062
-85.09342194,-121.46543884,0.182983400000012
-85.0802536,-121.46230316,0.182983400000012
-85.07662964,-121.4666214,0.182983400000012
-85.06699371,-121.4776535,0.1831054700001
-85.08834839,-121.45702362,0.18334961000005
-85.09506989,-121.45868683,0.18359375
-85.07647705,-121.4688797,0.183715820000089
-85.07401276,-121.45890808,0.183959960000038
-85.07402802,-121.47145081,0.184082030000127
-85.0756073,-121.47057343,0.184204099999988
-85.06504822,-121.47727203,0.184204099999988
-85.09194946,-121.46211243,0.184326170000077
-85.06833649,-121.47377014,0.184448239999938
-85.07514191,-121.4640274,0.184936520000065
-85.06465149,-121.47949982,0.184936520000065
-85.08294678,-121.46063232,0.185180660000015
-85.07801056,-121.46140289,0.185180660000015
-85.06884003,-121.47733307,0.185302730000103
-85.09770203,-121.46649933,0.185424799999964
-85.07187653,-121.46753693,0.185668940000141
-85.09264374,-121.45935822,0.185791010000003
-85.07362366,-121.45815277,0.185791010000003
-85.07034302,-121.47444916,0.185791010000003
-85.07363129,-121.4644165,0.185913089999985
-85.07720947,-121.46047211,0.185913089999985
-85.0752182,-121.46981812,0.186035160000074
-85.07697296,-121.46331024,0.186279300000024
-85.06423187,-121.47898865,0.186401370000112
-85.0843277,-121.46360779,0.186523439999974
-85.07884216,-121.45810699,0.186523439999974
-85.0622406,-121.47882843,0.186523439999974
-85.08719635,-121.46147156,0.186767580000151
-85.08306885,-121.4600296,0.186889650000012
-85.08081055,-121.45896149,0.186889650000012
-85.0734787,-121.4732132,0.1870117200001
-85.076828,-121.47222137,0.187133789999962
-85.09050751,-121.45896912,0.1875
-85.07563782,-121.46511078,0.187622070000089
-85.07369232,-121.46444702,0.187622070000089
-85.0682373,-121.47956848,0.187622070000089
-85.0715332,-121.47280884,0.187866210000038
-85.07145691,-121.45449829,0.187866210000038
-85.07186127,-121.45278168,0.188110349999988
-85.0737381,-121.47374725,0.188476560000026
-85.09221649,-121.46112823,0.188598630000115
-85.07614136,-121.46240234,0.188598630000115
-85.07505035,-121.46658325,0.188598630000115
-85.0723877,-121.46862793,0.188598630000115
-85.07640839,-121.47171021,0.188720699999976
-85.08068085,-121.45967865,0.188842770000065
-85.08448029,-121.46322632,0.189086910000015
-85.06890106,-121.4748764,0.189086910000015
-85.07852173,-121.46626282,0.189086910000015
-85.09413147,-121.46173096,0.189208980000103
-85.08696747,-121.46167755,0.189331049999964
-85.07202148,-121.47363281,0.189331049999964
-85.07505035,-121.46383667,0.189697260000003
-85.06786346,-121.47556305,0.189697260000003
-85.09855652,-121.47203064,0.189819339999985
-85.07601166,-121.47419739,0.189941410000074
-85.09806061,-121.46470642,0.190063479999935
-85.07553864,-121.46739197,0.190063479999935
-85.07669067,-121.47200012,0.190185550000024
-85.09017944,-121.45995331,0.190307620000112
-85.08113098,-121.45697784,0.190307620000112
-85.07037354,-121.45018768,0.190307620000112
-85.09593964,-121.46437073,0.190551760000062
-85.07241821,-121.45612335,0.190551760000062
-85.072052,-121.47691345,0.190551760000062
-85.06855774,-121.47988892,0.190551760000062
-85.07797241,-121.46859741,0.190673830000151
-85.07697296,-121.46523285,0.190795900000012
-85.07138824,-121.47260284,0.190795900000012
-85.10041046,-121.46495819,0.1909179700001
-85.07778931,-121.47109985,0.19116211000005
-85.09371948,-121.46351624,0.19140625
-85.07408142,-121.47382355,0.191528320000089
-85.07032776,-121.47679138,0.191528320000089
-85.07733917,-121.46755981,0.192016599999988
-85.07576752,-121.45890808,0.192138670000077
-85.072258,-121.45562744,0.192382810000026
-85.06896973,-121.47218323,0.192382810000026
-85.07784271,-121.47113037,0.192993160000015
-85.09166718,-121.46234131,0.193115230000103
-85.08940887,-121.4625473,0.193359370000053
-85.0844574,-121.46204376,0.193481440000141
-85.07259369,-121.4744873,0.193847660000074
-85.0936203,-121.46318054,0.194213870000112
-85.07006073,-121.4524765,0.194213870000112
-85.10166931,-121.46993256,0.194335939999974
-85.09896851,-121.4704895,0.194335939999974
-85.07987976,-121.46218109,0.194458010000062
-85.07475281,-121.46312714,0.194458010000062
-85.05848694,-121.47540283,0.194458010000062
-85.07718658,-121.46408081,0.194580080000151
-85.08598328,-121.46575165,0.194946289999962
-85.07592773,-121.47402191,0.194946289999962
-85.08072662,-121.45909882,0.194946289999962
-85.07906342,-121.46246338,0.19506836000005
-85.07657623,-121.46604919,0.195800780000127
-85.07907104,-121.47904205,0.195800780000127
-85.08879852,-121.4646225,0.195922849999988
-85.07993317,-121.46807098,0.195922849999988
-85.06671143,-121.4768219,0.195922849999988
-85.07055664,-121.45002747,0.196044920000077
-85.06706238,-121.46907043,0.196044920000077
-85.07884216,-121.47251129,0.196166989999938
-85.07466125,-121.4746933,0.196166989999938
-85.08672333,-121.46196747,0.196289060000026
-85.07003021,-121.47634125,0.196777339999926
-85.07392883,-121.45558167,0.197265620000053
-85.07839966,-121.46897888,0.197265620000053
-85.09645844,-121.46221161,0.197509760000003
-85.07736206,-121.47917938,0.197509760000003
-85.09736633,-121.46661377,0.197631839999985
-85.08959961,-121.46974945,0.197631839999985
-85.07978058,-121.46759033,0.197631839999985
-85.07821655,-121.47148132,0.197875979999935
-85.06855011,-121.47648621,0.197875979999935
-85.06259155,-121.47576904,0.197998050000024
-85.07266998,-121.45542908,0.197998050000024
-85.08725739,-121.45973969,0.198242189999974
-85.09960175,-121.47736359,0.198242189999974
-85.09742737,-121.47551727,0.198242189999974
-85.07338715,-121.47888184,0.198242189999974
-85.09188843,-121.46975708,0.198364260000062
-85.10135651,-121.47109985,0.198852539999962
-85.07644653,-121.46559143,0.198852539999962
-85.0776062,-121.47646332,0.198852539999962
-85.06281281,-121.47328949,0.198852539999962
-85.08049011,-121.45651245,0.199096680000139
-85.07354736,-121.45482635,0.199340820000089
-85.0819931,-121.46878815,0.199340820000089
-85.07891083,-121.46653748,0.19946288999995
-85.08085632,-121.47091675,0.19946288999995
-85.09033966,-121.46723175,0.199584960000038
-85.068367,-121.47624969,0.199584960000038
-85.08512878,-121.45935822,0.199707030000127
-85.07717896,-121.47267914,0.199707030000127
-85.09748077,-121.46598816,0.199829099999988
-85.09793091,-121.47305298,0.199829099999988
-85.08004761,-121.4713974,0.199829099999988
-85.07866669,-121.46025848,0.200073239999938
-85.09593964,-121.46347809,0.200195310000026
-85.09266663,-121.46620178,0.200317380000115
-85.06417084,-121.47567749,0.200317380000115
-85.09963989,-121.46653748,0.200439449999976
-85.08215332,-121.46224976,0.200439449999976
-85.07987213,-121.47390747,0.200561520000065
-85.06506348,-121.47399139,0.200561520000065
-85.07041168,-121.47943115,0.200561520000065
-85.0800705,-121.46816254,0.200683589999926
-85.07901764,-121.47534943,0.201049799999964
-85.07505798,-121.45467377,0.201049799999964
-85.07193756,-121.47930908,0.201171870000053
-85.0870285,-121.4611969,0.201293940000141
-85.0791626,-121.46408081,0.201293940000141
-85.0743866,-121.47699738,0.201416010000003
-85.0788269,-121.48136902,0.202026370000112
-85.08360291,-121.47341156,0.202026370000112
-85.06845093,-121.47628784,0.202148439999974
-85.06532288,-121.47454071,0.202270510000062
-85.07441711,-121.48027802,0.2026367200001
-85.07659149,-121.46865845,0.202758789999962
-85.09205627,-121.46826935,0.20288086000005
-85.07164764,-121.45799255,0.20288086000005
-85.08441162,-121.46218872,0.203002930000139
-85.07840729,-121.47432709,0.203125
-85.06626892,-121.47888947,0.203125
-85.09152222,-121.46198273,0.20336913999995
-85.07302094,-121.4568634,0.203613280000127
-85.07501221,-121.46353912,0.203613280000127
-85.06781769,-121.47852325,0.203613280000127
-85.07797241,-121.47705841,0.203857420000077
-85.07733917,-121.4787674,0.203857420000077
-85.09883118,-121.47015381,0.203979489999938
-85.09430695,-121.46929932,0.203979489999938
-85.07293701,-121.4804306,0.203979489999938
-85.07232666,-121.45304871,0.204101560000026
-85.07334137,-121.47870636,0.204223630000115
-85.07601166,-121.45440674,0.204345699999976
-85.08661652,-121.46643829,0.204467770000065
-85.07994843,-121.45648193,0.204589839999926
-85.07376099,-121.46395874,0.204956049999964
-85.07689667,-121.47197723,0.204956049999964
-85.08554077,-121.46646881,0.205200190000141
-85.08460999,-121.46077728,0.205444339999985
-85.08860016,-121.4640274,0.205688479999935
-85.07375336,-121.46121216,0.205688479999935
-85.07254028,-121.47991943,0.205688479999935
-85.08184052,-121.4796524,0.205688479999935
-85.0776062,-121.47605896,0.205810550000024
-85.07408142,-121.47955322,0.205932620000112
-85.09114075,-121.46272278,0.206176760000062
-85.07647705,-121.46820831,0.206298830000151
-85.06704712,-121.47975159,0.206420900000012
-85.07832336,-121.48014069,0.2065429700001
-85.07846832,-121.4686203,0.206665039999962
-85.0789566,-121.47843933,0.20678711000005
-85.0694809,-121.4809494,0.20678711000005
-85.07672882,-121.45422363,0.20678711000005
-85.08027649,-121.47453308,0.20703125
-85.07148743,-121.48111725,0.207153320000089
-85.06886292,-121.48267365,0.20727538999995
-85.07479858,-121.48062897,0.207641599999988
-85.07701874,-121.4571991,0.207641599999988
-85.08511353,-121.46697235,0.207763670000077
-85.08273315,-121.47548676,0.207763670000077
-85.08010101,-121.47704315,0.207763670000077
-85.07196045,-121.48493195,0.207885739999938
-85.0708313,-121.47707367,0.208007810000026
-85.09654999,-121.46917725,0.208251949999976
-85.06733704,-121.48332214,0.208251949999976
-85.08412933,-121.4622879,0.208496089999926
-85.06887817,-121.48294067,0.208740230000103
-85.10067749,-121.47187805,0.208862299999964
-85.0796814,-121.47325897,0.208862299999964
-85.0827713,-121.47550964,0.208984370000053
-85.07684326,-121.4808197,0.209350589999985
-85.0741806,-121.47960663,0.209350589999985
-85.08970642,-121.46824646,0.209594729999935
-85.07595825,-121.45149994,0.209716800000024
-85.08126068,-121.47590637,0.209960939999974
-85.07840729,-121.47718811,0.210083010000062
-85.0667572,-121.48178864,0.210083010000062
-85.08152008,-121.47918701,0.210205080000151
-85.0786438,-121.48072052,0.210205080000151
-85.0814209,-121.46405792,0.210327150000012
-85.08281708,-121.47554016,0.21069336000005
-85.07003784,-121.48181152,0.21069336000005
-85.07858276,-121.46568298,0.210815430000139
-85.09034729,-121.46524811,0.2109375
-85.10092926,-121.47071075,0.211303710000038
-85.08305359,-121.47280884,0.211303710000038
-85.07559204,-121.47849274,0.211425780000127
-85.06459045,-121.48439789,0.211425780000127
-85.0928421,-121.46497345,0.211547849999988
-85.0819931,-121.47042847,0.211669920000077
-85.07843781,-121.4774704,0.211791989999938
-85.07367706,-121.45503235,0.212036130000115
-85.08262634,-121.47528839,0.212036130000115
-85.0809021,-121.4781723,0.212036130000115
-85.07804871,-121.48246002,0.212036130000115
-85.08126068,-121.46716309,0.212158199999976
-85.07646942,-121.47707367,0.212158199999976
-85.09107971,-121.46272278,0.212890620000053
-85.08312988,-121.47885895,0.212890620000053
-85.09900665,-121.4677124,0.213256839999985
-85.08276367,-121.47329712,0.213256839999985
-85.08334351,-121.47637177,0.213378910000074
-85.07203674,-121.45239258,0.213500979999935
-85.07804871,-121.47670746,0.213623050000024
-85.07698059,-121.48088837,0.213867189999974
-85.06929016,-121.48304749,0.213989260000062
-85.08605957,-121.46911621,0.213989260000062
-85.08550262,-121.46537018,0.214111330000151
-85.07850647,-121.47425079,0.214111330000151
-85.07057953,-121.48265076,0.214233400000012
-85.10147095,-121.47711945,0.2143554700001
-85.07689667,-121.45983124,0.214721680000139
-85.07592773,-121.48509216,0.214721680000139
-85.07894897,-121.46576691,0.214965820000089
-85.08052826,-121.47441864,0.21508788999995
-85.07678986,-121.47738647,0.21508788999995
-85.07589722,-121.48233032,0.21508788999995
-85.06907654,-121.48304749,0.215209960000038
-85.09094238,-121.46214294,0.215332030000127
-85.09902954,-121.46787262,0.215454099999988
-85.08010101,-121.47689819,0.215576170000077
-85.1008606,-121.47055054,0.215820310000026
-85.07219696,-121.48506165,0.215820310000026
-85.07917023,-121.46981049,0.215942380000115
-85.08273315,-121.4668808,0.216430660000015
-85.0756073,-121.45774841,0.216430660000015
-85.07926941,-121.47836304,0.216552730000103
-85.07396698,-121.48194885,0.216674799999964
-85.07968903,-121.47312927,0.216918940000141
-85.09236908,-121.46536255,0.217041010000003
-85.07305908,-121.47135162,0.217041010000003
-85.07643127,-121.47963715,0.217041010000003
-85.07543945,-121.46025848,0.217163089999985
-85.07328796,-121.47814941,0.217163089999985
-85.07974243,-121.47589874,0.217285160000074
-85.10070801,-121.47972107,0.217407229999935
-85.09139252,-121.46069336,0.217529300000024
-85.07720947,-121.4777832,0.217895510000062
-85.08812714,-121.46466827,0.218139650000012
-85.09855652,-121.4693985,0.2182617200001
-85.07582092,-121.48462677,0.2182617200001
-85.07752228,-121.47573853,0.218383789999962
-85.07187653,-121.45172119,0.21850586000005
-85.08601379,-121.46621704,0.218627930000139
-85.07198334,-121.4697876,0.218872070000089
-85.07370758,-121.46064758,0.21899413999995
-85.10028839,-121.47283936,0.219116210000038
-85.07404327,-121.4757309,0.219238280000127
-85.07398224,-121.46369171,0.219482420000077
-85.0723114,-121.4818573,0.219482420000077
-85.09208679,-121.46659851,0.219604489999938
-85.07038879,-121.45213318,0.219970699999976
-85.07692719,-121.48399353,0.219970699999976
-85.07730103,-121.46646118,0.220092770000065
-85.07356262,-121.46617126,0.220214839999926
-85.07512665,-121.47180939,0.220214839999926
-85.09078217,-121.4627533,0.220458980000103
-85.07427216,-121.47325897,0.220458980000103
-85.07290649,-121.46212006,0.221191410000074
-85.07276154,-121.47364807,0.221313479999935
-85.0724411,-121.45532227,0.221435550000024
-85.09327698,-121.47113037,0.221557620000112
-85.08721924,-121.4677887,0.221557620000112
-85.07588959,-121.48191833,0.221557620000112
-85.09249115,-121.46489716,0.221801760000062
-85.07631683,-121.47644806,0.221923830000151
-85.07060242,-121.48226929,0.221923830000151
-85.07334137,-121.4601593,0.222045900000012
-85.07473755,-121.47106171,0.222045900000012
-85.07009125,-121.4601593,0.22241211000005
-85.07434845,-121.4763031,0.222778320000089
-85.09073639,-121.46266174,0.22290038999995
-85.08318329,-121.47579193,0.223144530000127
-85.07118988,-121.45925903,0.223388670000077
-85.07594299,-121.47569275,0.223632810000026
-85.07460785,-121.47985077,0.223632810000026
-85.07478333,-121.47133636,0.223754880000115
-85.0670166,-121.45517731,0.224243160000015
-85.07775879,-121.45333862,0.225341800000024
-85.07048035,-121.48206329,0.225463870000112
-85.07853699,-121.45623016,0.226196289999962
-85.07402802,-121.48184967,0.226440430000139
-85.0894928,-121.46661377,0.2265625
-85.07404327,-121.47559357,0.226928710000038
-85.06640625,-121.45767975,0.227050780000127
-85.07211304,-121.4812088,0.227416989999938
-85.07202911,-121.46942139,0.227416989999938
-85.06446075,-121.4545517,0.228881839999985
-85.06942749,-121.46823883,0.229492189999974
-85.06652832,-121.46048737,0.229736330000151
-85.06922913,-121.47126007,0.230957030000127
-85.06372833,-121.45880127,0.232299799999964
