"X","Y","Z"
-84.89600372,-121.34738922,0.280029300000024
-84.89424133,-121.34758759,0.280029300000024
-84.8747406,-121.33168793,0.280029300000024
-84.88890076,-121.33979797,0.280029300000024
-84.88468933,-121.33596039,0.280029300000024
-84.88857269,-121.3303299,0.280151370000112
-84.88539124,-121.32485962,0.280151370000112
-84.87007904,-121.32077026,0.280151370000112
-84.87419891,-121.33291626,0.280151370000112
-84.87886047,-121.32289124,0.280273440000201
-84.93698883,-121.3482132,0.280273440000201
-84.87229156,-121.33010101,0.280273440000201
-84.88256073,-121.33718872,0.280395510000062
-84.87113953,-121.33457184,0.280395510000062
-84.92656708,-121.34561157,0.280517580000151
-84.87300873,-121.32286072,0.280517580000151
-84.92141724,-121.3421936,0.280639650000012
-84.86916351,-121.33901215,0.280639650000012
-84.91142273,-121.33409882,0.2807617200001
-84.90823364,-121.3400116,0.2807617200001
-84.90210724,-121.33605957,0.2807617200001
-84.87654877,-121.33722687,0.2807617200001
-84.8707962,-121.32927704,0.28100586000005
-84.87152863,-121.3378067,0.28100586000005
-84.87713623,-121.33663177,0.28100586000005
-84.87470245,-121.33569336,0.28100586000005
-84.8901062,-121.32790375,0.281127930000139
-84.88202667,-121.33789825,0.281127930000139
-84.88471985,-121.32421875,0.28125
-84.88847351,-121.33847809,0.281372070000089
-84.91162109,-121.33558655,0.281372070000089
-84.90651703,-121.33091736,0.281372070000089
-84.8861084,-121.32775879,0.281372070000089
-84.88581848,-121.32875061,0.281372070000089
-84.88124847,-121.33886719,0.281372070000089
-84.87030792,-121.32099152,0.281372070000089
-84.87467957,-121.332901,0.281372070000089
-84.88960266,-121.32673645,0.281494140000177
-84.89549255,-121.33155823,0.281494140000177
-84.91291809,-121.34188843,0.281616210000038
-84.86933136,-121.32820892,0.281616210000038
-84.88316345,-121.33360291,0.281616210000038
-84.86559296,-121.33699036,0.281616210000038
-84.86865997,-121.32672882,0.281738280000127
-84.88549042,-121.32347107,0.281860350000215
-84.87467194,-121.34114075,0.281860350000215
-84.86712646,-121.32662964,0.281860350000215
-84.88282776,-121.32038116,0.281982420000077
-84.8864212,-121.34101105,0.281982420000077
-84.87255096,-121.33680725,0.281982420000077
-84.92169952,-121.34089661,0.282104500000059
-84.86856079,-121.32090759,0.282104500000059
-84.91602325,-121.33846283,0.282226570000148
-84.91177368,-121.33831787,0.282226570000148
-84.88674927,-121.34651947,0.282226570000148
-84.88201141,-121.33811188,0.282348640000009
-84.85871887,-121.33519745,0.282348640000009
-84.85565948,-121.33596802,0.282348640000009
-84.8797226,-121.32810211,0.282348640000009
-84.94252014,-121.34657288,0.282470710000098
-84.87233734,-121.33554077,0.282470710000098
-84.86344147,-121.32424164,0.282470710000098
-84.89203644,-121.32620239,0.282592780000186
-84.87992859,-121.31700897,0.282592780000186
-84.87727356,-121.33769989,0.282592780000186
-84.88406372,-121.33217621,0.282592780000186
-84.87738037,-121.33090973,0.282592780000186
-84.91278076,-121.33783722,0.282714850000048
-84.9256134,-121.34351349,0.282714850000048
-84.87506866,-121.33612061,0.282714850000048
-84.86855316,-121.33666229,0.282714850000048
-84.86766052,-121.33666229,0.282714850000048
-84.86721039,-121.33914185,0.282714850000048
-84.89492035,-121.32533264,0.282836920000136
-84.91368866,-121.34087372,0.282836920000136
-84.88404846,-121.3289032,0.282836920000136
-84.8673172,-121.32009888,0.282836920000136
-84.86736298,-121.32685852,0.282836920000136
-84.91850281,-121.33876801,0.282958990000225
-84.87030029,-121.32093811,0.282958990000225
-84.8793869,-121.33106995,0.282958990000225
-84.87165833,-121.33371735,0.282958990000225
-84.88258362,-121.32008362,0.283081060000086
-84.88967133,-121.32507324,0.283081060000086
-84.876091,-121.33482361,0.283081060000086
-84.88246918,-121.32688141,0.283203130000174
-84.91409302,-121.33586121,0.283325200000036
-84.89163971,-121.34964752,0.283325200000036
-84.86535645,-121.31877136,0.283325200000036
-84.91381073,-121.33685303,0.283447270000124
-84.89179993,-121.32888031,0.283447270000124
-84.88085938,-121.31900787,0.283447270000124
-84.86470795,-121.32350159,0.283447270000124
-84.88767242,-121.33448792,0.283447270000124
-84.87876892,-121.33277893,0.283447270000124
-84.90923309,-121.33119202,0.283691410000074
-84.91252899,-121.3375473,0.283691410000074
-84.89232635,-121.32788849,0.283691410000074
-84.86930847,-121.32013702,0.283691410000074
-84.88078308,-121.32489777,0.283813480000163
-84.8888092,-121.32826996,0.283813480000163
-84.88366699,-121.34036255,0.283935550000024
-84.87758636,-121.33490753,0.283935550000024
-84.91207886,-121.33576965,0.284057620000112
-84.89624023,-121.330513,0.284057620000112
-84.87223816,-121.33798981,0.284057620000112
-84.86212158,-121.33424377,0.284179690000201
-84.91339111,-121.33405304,0.284301760000062
-84.87963867,-121.32834625,0.284301760000062
-84.91583252,-121.34364319,0.284423830000151
-84.87513733,-121.33331299,0.284423830000151
-84.88343811,-121.3311615,0.284423830000151
-84.86907196,-121.33856201,0.284423830000151
-84.85484314,-121.33442688,0.284423830000151
-84.88575745,-121.32308197,0.284545900000012
-84.88725281,-121.32659912,0.284545900000012
-84.87602997,-121.33659363,0.284545900000012
-84.86537933,-121.32549286,0.284545900000012
-84.87522125,-121.33377075,0.284545900000012
-84.86081696,-121.3348999,0.284545900000012
-84.88162231,-121.31825256,0.2846679700001
-84.85745239,-121.33312988,0.2846679700001
-84.85389709,-121.33686066,0.2846679700001
-84.91313171,-121.34204102,0.284790040000189
-84.89089203,-121.33331299,0.284790040000189
-84.87019348,-121.33914948,0.284790040000189
-84.86231995,-121.33513641,0.284790040000189
-84.85321808,-121.32953644,0.284790040000189
-84.90798187,-121.33860779,0.28491211000005
-84.88263702,-121.31752014,0.28491211000005
-84.86901093,-121.3290863,0.28491211000005
-84.85395813,-121.33937836,0.28491211000005
-84.91088867,-121.33370209,0.285034180000139
-84.89161682,-121.32607269,0.285034180000139
-84.88986206,-121.32626343,0.285034180000139
-84.86547852,-121.33653259,0.285034180000139
-84.87242126,-121.34082794,0.285034180000139
-84.90136719,-121.33413696,0.28515625
-84.88545227,-121.34689331,0.28515625
-84.87336731,-121.34123993,0.28515625
-84.88813782,-121.3355484,0.28515625
-84.93390656,-121.34895325,0.285278320000089
-84.8811264,-121.31771088,0.285400390000177
-84.89031219,-121.32776642,0.285400390000177
-84.87692261,-121.33985138,0.285400390000177
-84.8964386,-121.34825134,0.285400390000177
-84.87628937,-121.32891083,0.285400390000177
-84.92607117,-121.34368134,0.285522460000038
-84.87770081,-121.33123016,0.285522460000038
-84.90676117,-121.3375473,0.285644530000127
-84.86753082,-121.32826996,0.285644530000127
-84.86627197,-121.33648682,0.285644530000127
-84.86422729,-121.33766937,0.285644530000127
-84.88813782,-121.32518005,0.285766600000215
-84.87193298,-121.33917236,0.285766600000215
-84.86312866,-121.32511902,0.285766600000215
-84.91638184,-121.34161377,0.285888670000077
-84.88047028,-121.33818817,0.285888670000077
-84.86888123,-121.33831024,0.285888670000077
-84.8989563,-121.3310318,0.286010750000059
-84.8864212,-121.32411957,0.286010750000059
-84.87123871,-121.32161713,0.286010750000059
-84.87368011,-121.33921814,0.286010750000059
-84.87017822,-121.33911133,0.286010750000059
-84.85839844,-121.33448029,0.286010750000059
-84.85417175,-121.33390045,0.286010750000059
-84.87159729,-121.32417297,0.286010750000059
-84.88622284,-121.33036041,0.286132820000148
-84.8735199,-121.33365631,0.286132820000148
-84.88967896,-121.32602692,0.286254890000009
-84.88633728,-121.34211731,0.286254890000009
-84.87130737,-121.33299255,0.286254890000009
-84.8673172,-121.33920288,0.286254890000009
-84.89337158,-121.32167816,0.286376960000098
-84.92929077,-121.34451294,0.286376960000098
-84.90625763,-121.33725739,0.286376960000098
-84.88066864,-121.31616211,0.286376960000098
-84.86952972,-121.32029724,0.286376960000098
-84.87416077,-121.33196259,0.286376960000098
-84.88336182,-121.31800079,0.286499030000186
-84.87708282,-121.33455658,0.286499030000186
-84.88735199,-121.34966278,0.286499030000186
-84.87866211,-121.33960724,0.286621100000048
-84.93295288,-121.34712219,0.286743170000136
-84.91384888,-121.33424377,0.286865240000225
-84.88922882,-121.32192993,0.286865240000225
-84.88498688,-121.3295517,0.286865240000225
-84.87510681,-121.33322906,0.286865240000225
-84.87898254,-121.34512329,0.286865240000225
-84.87126923,-121.32034302,0.286865240000225
-84.86752319,-121.32823181,0.286865240000225
-84.8622818,-121.31085968,0.286865240000225
-84.87168121,-121.33886719,0.286987310000086
-84.87001038,-121.3371582,0.286987310000086
-84.9229126,-121.34027863,0.287109380000174
-84.85671234,-121.3141098,0.287109380000174
-84.87255859,-121.3423996,0.287109380000174
-84.8735199,-121.32633209,0.287109380000174
-84.87384796,-121.3236618,0.287231450000036
-84.92610168,-121.34237671,0.287231450000036
-84.88182831,-121.31842041,0.287231450000036
-84.87825012,-121.33657074,0.287231450000036
-84.88527679,-121.32460022,0.287353520000124
-84.86473083,-121.33688354,0.287353520000124
-84.87056732,-121.34207916,0.287353520000124
-84.87619019,-121.32888031,0.287353520000124
-84.91928101,-121.33638763,0.287475590000213
-84.90505981,-121.33518219,0.287475590000213
-84.89629364,-121.32788849,0.287475590000213
-84.88033295,-121.32637024,0.287475590000213
-84.8557663,-121.3332901,0.287475590000213
-84.89134979,-121.3337326,0.287597660000074
-84.88645172,-121.32256317,0.287597660000074
-84.87098694,-121.31813812,0.287597660000074
-84.91670227,-121.25827789,0.287719730000163
-84.91652679,-121.34406281,0.287719730000163
-84.87983704,-121.3416214,0.287719730000163
-84.92196655,-121.33821869,0.287841800000024
-84.88657379,-121.34233093,0.287841800000024
-84.89247894,-121.32949829,0.287963870000112
-84.88387299,-121.34825134,0.287963870000112
-84.86611938,-121.3168869,0.287963870000112
-84.9153595,-121.33374023,0.288085940000201
-84.92170715,-121.34620667,0.288085940000201
-84.88497162,-121.32951355,0.288085940000201
-84.868927,-121.33049011,0.288208010000062
-84.86663818,-121.3394165,0.288208010000062
-84.8717804,-121.33104706,0.288208010000062
-84.89650726,-121.31967926,0.288452150000012
-84.86965942,-121.33876038,0.288452150000012
-84.91377258,-121.26882172,0.2885742200001
-84.88626862,-121.32077026,0.2885742200001
-84.87439728,-121.32144165,0.2885742200001
-84.91938019,-121.34060669,0.2885742200001
-84.86602783,-121.32713318,0.2885742200001
-84.87608337,-121.32338715,0.288696290000189
-84.89924622,-121.33644867,0.288696290000189
-84.89578247,-121.32759094,0.288696290000189
-84.88308716,-121.31765747,0.288696290000189
-84.88069916,-121.32472992,0.28881836000005
-84.91506195,-121.33496094,0.28881836000005
-84.89611053,-121.33309937,0.28881836000005
-84.878479,-121.33677673,0.28881836000005
-84.87336731,-121.34011841,0.28881836000005
-84.87754059,-121.32824707,0.28881836000005
-84.87310791,-121.32967377,0.28881836000005
-84.92080688,-121.34290314,0.288940430000139
-84.89022827,-121.32113647,0.288940430000139
-84.88484955,-121.31745911,0.288940430000139
-84.86564636,-121.33885956,0.288940430000139
-84.86940002,-121.33614349,0.288940430000139
-84.9280777,-121.34213257,0.289184570000089
-84.89729309,-121.33512878,0.289184570000089
-84.87860107,-121.32501221,0.289184570000089
-84.87381744,-121.33361816,0.289184570000089
-84.86463165,-121.33931732,0.289184570000089
-84.86981201,-121.33416748,0.289184570000089
-84.89128876,-121.32717133,0.289306640000177
-84.8853302,-121.34123993,0.289306640000177
-84.86042786,-121.31416321,0.289306640000177
-84.86353302,-121.32676697,0.289306640000177
-84.92198181,-121.34516907,0.289550780000127
-84.88288879,-121.32422638,0.289794920000077
-84.91867828,-121.33879852,0.289794920000077
-84.91311646,-121.34037018,0.289794920000077
-84.88275146,-121.32788086,0.289794920000077
-84.87748718,-121.33596802,0.289794920000077
-84.87980652,-121.32843781,0.289794920000077
-84.87628937,-121.33493805,0.289794920000077
-84.85296631,-121.33159637,0.289794920000077
-84.903862,-121.33280945,0.289917000000059
-84.89826202,-121.32787323,0.289917000000059
-84.8899765,-121.32084656,0.289917000000059
-84.87683105,-121.34095001,0.289917000000059
-84.86769867,-121.32939148,0.289917000000059
-84.87296295,-121.33267212,0.289917000000059
-84.8915863,-121.32676697,0.290039070000148
-84.93438721,-121.34806061,0.290039070000148
-84.88548279,-121.3207016,0.290039070000148
-84.88327789,-121.34265137,0.290039070000148
-84.8795166,-121.34303284,0.290039070000148
-84.87445831,-121.32109833,0.290039070000148
-84.87039185,-121.33122253,0.290039070000148
-84.89637756,-121.31912231,0.290161140000009
-84.92388916,-121.34771729,0.290161140000009
-84.86956024,-121.31791687,0.290283210000098
-84.86813354,-121.33914948,0.290283210000098
-84.86100006,-121.33499908,0.290283210000098
-84.90164948,-121.3392334,0.290405280000186
-84.923172,-121.33892059,0.290527350000048
-84.89968109,-121.33815765,0.290527350000048
-84.89135742,-121.33238983,0.290527350000048
-84.88356018,-121.31812286,0.290527350000048
-84.88005066,-121.34178162,0.290527350000048
-84.8708725,-121.33947754,0.290527350000048
-84.86283112,-121.31694031,0.290771490000225
-84.86412048,-121.33701324,0.290893560000086
-84.85568237,-121.33583832,0.290893560000086
-84.88526154,-121.34293365,0.291015630000174
-84.88330078,-121.34963226,0.291015630000174
-84.86940002,-121.33365631,0.291015630000174
-84.90873718,-121.33618164,0.291137700000036
-84.92118835,-121.34584045,0.291259770000124
-84.88677979,-121.3187027,0.291259770000124
-84.87148285,-121.34372711,0.291259770000124
-84.86734772,-121.33984375,0.291259770000124
-84.86656952,-121.34056854,0.291259770000124
-84.8605423,-121.33798218,0.291259770000124
-84.8549881,-121.33203125,0.291259770000124
-84.87413025,-121.32266998,0.291381840000213
-84.87979889,-121.32659912,0.291381840000213
-84.86193085,-121.33634186,0.291381840000213
-84.90042877,-121.30545807,0.291503910000074
-84.91996765,-121.33679199,0.291503910000074
-84.91870117,-121.33748627,0.291503910000074
-84.87468719,-121.32131195,0.291503910000074
-84.92436981,-121.34793091,0.291625980000163
-84.89852905,-121.32657623,0.291625980000163
-84.89733887,-121.33255005,0.291625980000163
-84.87004089,-121.31815338,0.291625980000163
-84.87586975,-121.34686279,0.291870120000112
-84.86620331,-121.32852936,0.291870120000112
-84.86591339,-121.33690643,0.291870120000112
-84.89183807,-121.3256073,0.291992190000201
-84.89157867,-121.33260345,0.291992190000201
-84.8736496,-121.33100128,0.291992190000201
-84.85858917,-121.33759308,0.291992190000201
-84.87123871,-121.3363266,0.292114260000062
-84.92375183,-121.34339142,0.292236330000151
-84.88227844,-121.32627869,0.292236330000151
-84.86364746,-121.32633972,0.292358400000012
-84.88614655,-121.34591675,0.2924804700001
-84.88704681,-121.33631897,0.2924804700001
-84.86060333,-121.33776093,0.2924804700001
-84.93225098,-121.34365082,0.292602540000189
-84.88574219,-121.34314728,0.292602540000189
-84.86726379,-121.33276367,0.292602540000189
-84.86328888,-121.33545685,0.292602540000189
-84.85639954,-121.33692932,0.292602540000189
-84.90170288,-121.33664703,0.29272461000005
-84.89109039,-121.33206177,0.29272461000005
-84.88839722,-121.32245636,0.29272461000005
-84.87635803,-121.33524323,0.29272461000005
-84.88352966,-121.34156036,0.29296875
-84.8615799,-121.31607819,0.29296875
-84.89067078,-121.34162903,0.29296875
-84.90164948,-121.30156708,0.293090820000089
-84.90258789,-121.33992004,0.293090820000089
-84.86728668,-121.34104156,0.293090820000089
-84.87329865,-121.33601379,0.293090820000089
-84.87478638,-121.32659149,0.293212890000177
-84.88591003,-121.32169342,0.293334960000038
-84.87600708,-121.3232193,0.293457030000127
-84.93713379,-121.34703827,0.293457030000127
-84.92756653,-121.34873199,0.293457030000127
-84.90001678,-121.32631683,0.293457030000127
-84.89758301,-121.32447815,0.293579100000215
-84.88871765,-121.31993866,0.293579100000215
-84.89234161,-121.34758759,0.293579100000215
-84.88887024,-121.34647369,0.293701170000077
-84.87471008,-121.31997681,0.293701170000077
-84.87481689,-121.32961273,0.293701170000077
-84.86022949,-121.3397522,0.293701170000077
-84.94055939,-121.34913635,0.293823250000059
-84.93173981,-121.34335327,0.293823250000059
-84.85455322,-121.31656647,0.293823250000059
-84.87261963,-121.31743622,0.293823250000059
-84.92450714,-121.34261322,0.293945320000148
-84.86972046,-121.33397675,0.293945320000148
-84.9016037,-121.3393631,0.294067390000009
-84.85952759,-121.3359375,0.294067390000009
-84.92507172,-121.34838104,0.294189460000098
-84.88057709,-121.33943176,0.294189460000098
-84.88564301,-121.34559631,0.294189460000098
-84.87397003,-121.3429718,0.294189460000098
-84.85266876,-121.3371582,0.294189460000098
-84.92513275,-121.33885956,0.294311530000186
-84.92263794,-121.33853149,0.294311530000186
-84.88018799,-121.32853699,0.294311530000186
-84.85488129,-121.33783722,0.294311530000186
-84.92980957,-121.34877014,0.294433600000048
-84.91873932,-121.34291077,0.294433600000048
-84.88960266,-121.33119965,0.294433600000048
-84.88713837,-121.34539032,0.294433600000048
-84.87290192,-121.33524323,0.294433600000048
-84.88894653,-121.32015991,0.294555670000136
-84.88816071,-121.33010864,0.294677740000225
-84.92855072,-121.34120941,0.294677740000225
-84.87371826,-121.33493042,0.294677740000225
-84.87330627,-121.33326721,0.294677740000225
-84.86802673,-121.30911255,0.294677740000225
-84.89732361,-121.32443237,0.294799810000086
-84.89862061,-121.33072662,0.294799810000086
-84.88542938,-121.34407043,0.294799810000086
-84.88400269,-121.34176636,0.294799810000086
-84.86711884,-121.33554077,0.294799810000086
-84.86177826,-121.33312225,0.294799810000086
-84.90653229,-121.34123993,0.294921880000174
-84.89167786,-121.32073975,0.294921880000174
-84.87468719,-121.31993866,0.294921880000174
-84.87486267,-121.32637024,0.294921880000174
-84.89511108,-121.32285309,0.295043950000036
-84.8766098,-121.32124329,0.295166020000124
-84.91191864,-121.33690643,0.295166020000124
-84.87225342,-121.33386993,0.295166020000124
-84.89037323,-121.3224411,0.295166020000124
-84.87297821,-121.3186264,0.295166020000124
-84.86486053,-121.33013153,0.295166020000124
-84.90878296,-121.3335495,0.295288090000213
-84.93295288,-121.34409332,0.295288090000213
-84.88346863,-121.34274292,0.295288090000213
-84.87815857,-121.3443222,0.295288090000213
-84.88382721,-121.34700012,0.295410160000074
-84.87375641,-121.33106232,0.295410160000074
-84.88664246,-121.31915283,0.295532230000163
-84.92362976,-121.34603119,0.295532230000163
-84.87367249,-121.34391785,0.295532230000163
-84.85938263,-121.33846283,0.295532230000163
-84.87703705,-121.32701111,0.295654300000024
-84.90174866,-121.33406067,0.295654300000024
-84.91632843,-121.33978271,0.295776370000112
-84.89710236,-121.32289124,0.295776370000112
-84.89811707,-121.33017731,0.295776370000112
-84.87264252,-121.32621002,0.295776370000112
-84.88040161,-121.32476807,0.295898440000201
-84.86562347,-121.31385803,0.295898440000201
-84.8669281,-121.31284332,0.295898440000201
-84.92754364,-121.34889221,0.296142580000151
-84.9197464,-121.34213257,0.296142580000151
-84.8952179,-121.33483124,0.296142580000151
-84.87908936,-121.33856964,0.296142580000151
-84.90602875,-121.34092712,0.296264650000012
-84.87136078,-121.33313751,0.296264650000012
-84.8600235,-121.30571747,0.296264650000012
-84.90856934,-121.33174896,0.2963867200001
-84.93032074,-121.34771729,0.2963867200001
-84.87271118,-121.33200073,0.2963867200001
-84.85970306,-121.32666016,0.296508790000189
-84.87513733,-121.32666779,0.296508790000189
-84.87870026,-121.32151794,0.29663086000005
-84.88263702,-121.32453156,0.29663086000005
-84.92790985,-121.34487915,0.29663086000005
-84.88887787,-121.32935333,0.29663086000005
-84.8621521,-121.32823944,0.29663086000005
-84.88899994,-121.34912109,0.296752930000139
-84.93543243,-121.34436798,0.296875
-84.90611267,-121.33815765,0.296875
-84.8564682,-121.32579041,0.296997070000089
-84.8735733,-121.33081818,0.296997070000089
-84.89112854,-121.3214035,0.297119140000177
-84.88495636,-121.3266983,0.297241210000038
-84.89543915,-121.3272934,0.297363280000127
-84.86799622,-121.30905151,0.297363280000127
-84.90601349,-121.34088898,0.297485350000215
-84.86074829,-121.33783722,0.297485350000215
-84.89958191,-121.32290649,0.297607420000077
-84.89878845,-121.32414246,0.297607420000077
-84.89214325,-121.32092285,0.297607420000077
-84.85655212,-121.33701324,0.297607420000077
-84.91658783,-121.33847046,0.297729500000059
-84.90679169,-121.33991241,0.297729500000059
-84.89304352,-121.32420349,0.297729500000059
-84.87267303,-121.33529663,0.297729500000059
-84.86903381,-121.32296753,0.297851570000148
-84.87387085,-121.3338623,0.297851570000148
-84.86766815,-121.33614349,0.297973640000009
-84.85388184,-121.33605194,0.297973640000009
-84.94300842,-121.34932709,0.298095710000098
-84.87634277,-121.33791351,0.298095710000098
-84.8742981,-121.33164215,0.298095710000098
-84.86805725,-121.33114624,0.298095710000098
-84.89031982,-121.33080292,0.298217780000186
-84.90527344,-121.34034729,0.298217780000186
-84.8685379,-121.31562805,0.298217780000186
-84.86229706,-121.31517792,0.298217780000186
-84.85597992,-121.31748199,0.298217780000186
-84.92682648,-121.3467865,0.298339850000048
-84.88536072,-121.3136673,0.298339850000048
-84.89098358,-121.34913635,0.298339850000048
-84.88746643,-121.34953308,0.298339850000048
-84.86160278,-121.32917023,0.298339850000048
-84.87313843,-121.31697845,0.298461920000136
-84.90731049,-121.33914948,0.298461920000136
-84.89536285,-121.32174683,0.298461920000136
-84.88806152,-121.31526184,0.298461920000136
-84.87458801,-121.32025146,0.298583990000225
-84.94178009,-121.34851837,0.298583990000225
-84.93096161,-121.34266663,0.298583990000225
-84.91143799,-121.34303284,0.298583990000225
-84.8980484,-121.32357788,0.298583990000225
-84.89653778,-121.32377625,0.298583990000225
-84.90103149,-121.33219147,0.298583990000225
-84.88291168,-121.31208038,0.298583990000225
-84.88641357,-121.34348297,0.298583990000225
-84.86824799,-121.31685638,0.298583990000225
-84.87550354,-121.32466125,0.298706060000086
-84.88858032,-121.31450653,0.298706060000086
-84.88001251,-121.34026337,0.298706060000086
-84.87445068,-121.3183136,0.298706060000086
-84.85794067,-121.34214783,0.298706060000086
-84.87812042,-121.33119965,0.298828130000174
-84.88961792,-121.31762695,0.298950200000036
-84.94741821,-121.34417725,0.298950200000036
-84.87713623,-121.32013702,0.298950200000036
-84.87561798,-121.32473755,0.298950200000036
-84.85237122,-121.33644867,0.298950200000036
-84.89016724,-121.31955719,0.299072270000124
-84.88848877,-121.31725311,0.299072270000124
-84.86669922,-121.31829834,0.299072270000124
-84.89129639,-121.34879303,0.299072270000124
-84.89105988,-121.33084106,0.299194340000213
-84.88259888,-121.32444,0.299316410000074
-84.94966125,-121.34425354,0.299316410000074
-84.90734863,-121.32985687,0.299316410000074
-84.93466949,-121.34375763,0.299316410000074
-84.85706329,-121.33757782,0.299316410000074
-84.90525818,-121.34030151,0.299438480000163
-84.89742279,-121.33505249,0.299438480000163
-84.86779022,-121.31532288,0.299438480000163
-84.86763763,-121.3126297,0.299438480000163
-84.86068726,-121.30526733,0.299438480000163
-84.89714813,-121.31578827,0.299560550000024
-84.88236237,-121.33506012,0.299560550000024
-84.93961334,-121.34565735,0.299682620000112
-84.93354797,-121.34722137,0.299682620000112
-84.90715027,-121.32808685,0.299804690000201
-84.88314056,-121.31230164,0.299804690000201
-84.89026642,-121.34732056,0.299804690000201
-84.8871994,-121.31707001,0.299926760000062
-84.88461304,-121.32553101,0.299926760000062
-84.88227844,-121.3235321,0.299926760000062
-84.8950119,-121.32418823,0.300048830000151
-84.8764801,-121.32082367,0.300170900000012
-84.93212891,-121.3446579,0.300170900000012
-84.89386749,-121.32064056,0.300170900000012
-84.87039948,-121.33515167,0.300170900000012
-84.91272736,-121.33325958,0.3002929700001
-84.90231323,-121.33843231,0.3002929700001
-84.86968231,-121.33055878,0.3002929700001
-84.85993958,-121.33329773,0.3002929700001
-84.873703,-121.33062744,0.300415040000189
-84.91905975,-121.33870697,0.30053711000005
-84.93399811,-121.34870911,0.30053711000005
-84.8957901,-121.32318878,0.30053711000005
-84.88848114,-121.31719971,0.30053711000005
-84.90126038,-121.32411957,0.300659180000139
-84.85957336,-121.32927704,0.300659180000139
-84.87277222,-121.31774139,0.30078125
-84.88691711,-121.32665253,0.30078125
-84.87098694,-121.32392883,0.30078125
-84.87857819,-121.32112122,0.300903320000089
-84.87615204,-121.31929016,0.300903320000089
-84.92636108,-121.34494019,0.301025390000177
-84.90444183,-121.32621002,0.301025390000177
-84.85153198,-121.3351593,0.301025390000177
-84.87454987,-121.32015991,0.301147460000038
-84.87599182,-121.32956696,0.301147460000038
-84.94571686,-121.34957123,0.301147460000038
-84.89659882,-121.32095337,0.301269530000127
-84.89025879,-121.34726715,0.301269530000127
-84.87684631,-121.33238983,0.301269530000127
-84.86929321,-121.33280182,0.301269530000127
-84.9348526,-121.34519958,0.301391600000215
-84.89234924,-121.32080078,0.301391600000215
-84.89813232,-121.32775116,0.301391600000215
-84.89157104,-121.32978821,0.301391600000215
-84.87088013,-121.33537292,0.301391600000215
-84.86412811,-121.31018066,0.301391600000215
-84.86617279,-121.33371735,0.301513670000077
-84.91262817,-121.34371948,0.301635750000059
-84.89572906,-121.32466125,0.301635750000059
-84.87062836,-121.31958771,0.301635750000059
-84.88131714,-121.33625793,0.301635750000059
-84.90490723,-121.33470917,0.301757820000148
-84.88918304,-121.34816742,0.301879890000009
-84.8646698,-121.31813049,0.302001960000098
-84.93805695,-121.34603119,0.302246100000048
-84.87021637,-121.33087921,0.302246100000048
-84.8578186,-121.33867645,0.302246100000048
-84.86164856,-121.30502319,0.302246100000048
-84.87023926,-121.326828,0.302246100000048
-84.9017334,-121.32457733,0.302368170000136
-84.8819809,-121.32649231,0.302490240000225
-84.87359619,-121.32015991,0.302490240000225
-84.87262726,-121.32907104,0.302490240000225
-84.88056946,-121.32113647,0.302612310000086
-84.86963654,-121.31877899,0.302612310000086
-84.85458374,-121.32028961,0.302734380000174
-84.85404205,-121.32151794,0.302734380000174
-84.86750031,-121.32415009,0.302734380000174
-84.896698,-121.3331604,0.302856450000036
-84.88375092,-121.32322693,0.302856450000036
-84.93318939,-121.34960175,0.302978520000124
-84.88694,-121.32533264,0.302978520000124
-84.85661316,-121.32710266,0.302978520000124
-84.87902832,-121.31967163,0.303100590000213
-84.87471008,-121.31980133,0.303100590000213
-84.93718719,-121.34947968,0.303100590000213
-84.91416168,-121.34221649,0.303100590000213
-84.91060638,-121.34385681,0.303100590000213
-84.90054321,-121.32227325,0.303100590000213
-84.8862381,-121.31994629,0.303222660000074
-84.89305878,-121.32151794,0.303222660000074
-84.87905884,-121.32131195,0.303344730000163
-84.87690735,-121.33242798,0.303344730000163
-84.87333679,-121.32012177,0.303466800000024
-84.88333893,-121.34371948,0.303588870000112
-84.85633087,-121.32807922,0.303588870000112
-84.8618927,-121.30773926,0.303588870000112
-84.87243652,-121.31871033,0.303710940000201
-84.88065338,-121.34187317,0.303710940000201
-84.89469147,-121.32379913,0.303833010000062
-84.86051941,-121.33364868,0.303833010000062
-84.89308929,-121.32023621,0.303955080000151
-84.86244202,-121.33226013,0.303955080000151
-84.94249725,-121.34761047,0.304077150000012
-84.91056824,-121.32906342,0.304077150000012
-84.88153839,-121.32161713,0.304077150000012
-84.89391327,-121.34954071,0.304077150000012
-84.87374115,-121.33888245,0.304077150000012
-84.85827637,-121.31360626,0.304077150000012
-84.86959076,-121.31997681,0.3041992200001
-84.86071777,-121.33119965,0.3041992200001
-84.86911011,-121.32656097,0.3041992200001
-84.86781311,-121.32720947,0.3041992200001
-84.86360168,-121.332901,0.3041992200001
-84.86947632,-121.3241272,0.3041992200001
-84.85722351,-121.31556702,0.304321290000189
-84.9072113,-121.34020233,0.30444336000005
-84.85906982,-121.30213928,0.30444336000005
-84.89644623,-121.31752777,0.304565430000139
-84.90712738,-121.33493805,0.304565430000139
-84.86528015,-121.30963898,0.304565430000139
-84.88561249,-121.330513,0.3046875
-84.89936829,-121.32692719,0.3046875
-84.86804199,-121.32183838,0.3046875
-84.91777039,-121.34603882,0.304809570000089
-84.86804962,-121.33074951,0.304809570000089
-84.88732147,-121.32401276,0.304931640000177
-84.86927795,-121.33695984,0.304931640000177
-84.85816193,-121.31732941,0.304931640000177
-84.85513306,-121.32598877,0.304931640000177
-84.86708069,-121.33538055,0.305175780000127
-84.91594696,-121.33245087,0.305297850000215
-84.87801361,-121.32196045,0.305297850000215
-84.91026306,-121.33827209,0.305419920000077
-84.92614746,-121.34203339,0.305419920000077
-84.86148834,-121.31466675,0.305419920000077
-84.87091827,-121.31639862,0.305664070000148
-84.94741821,-121.34947205,0.305664070000148
-84.89817047,-121.33287048,0.305664070000148
-84.860672,-121.33239746,0.305664070000148
-84.85520172,-121.32347107,0.305664070000148
-84.9187088,-121.34779358,0.305786140000009
-84.87877655,-121.3212204,0.305786140000009
-84.88742828,-121.32450867,0.305786140000009
-84.86335754,-121.33424377,0.305786140000009
-84.85552979,-121.32096863,0.305786140000009
-84.88995361,-121.33058167,0.305908210000098
-84.91732025,-121.34423828,0.305908210000098
-84.89335632,-121.31893921,0.305908210000098
-84.86408997,-121.33370972,0.305908210000098
-84.87207031,-121.31947327,0.306030280000186
-84.87677765,-121.32115173,0.306030280000186
-84.85682678,-121.31925201,0.306030280000186
-84.87991333,-121.32524872,0.306152350000048
-84.9256897,-121.34049988,0.306152350000048
-84.90522766,-121.33882904,0.306152350000048
-84.88246155,-121.32357788,0.306152350000048
-84.87481689,-121.31983185,0.306152350000048
-84.87944031,-121.33643341,0.306152350000048
-84.92275238,-121.33838654,0.306274420000136
-84.90866089,-121.34118652,0.306274420000136
-84.89644623,-121.33178711,0.306274420000136
-84.85997009,-121.31484222,0.306396490000225
-84.88839722,-121.32066345,0.306518560000086
-84.87254333,-121.32074738,0.306518560000086
-84.86631012,-121.32486725,0.306518560000086
-84.86476898,-121.3068924,0.306518560000086
-84.88400269,-121.32211304,0.306640630000174
-84.87715149,-121.31813049,0.306762700000036
-84.90641022,-121.33309937,0.306762700000036
-84.87547302,-121.3228302,0.306762700000036
-84.86749268,-121.33550262,0.306762700000036
-84.87056732,-121.31941986,0.306884770000124
-84.85849762,-121.3215332,0.306884770000124
-84.87748718,-121.32469177,0.307006840000213
-84.86197662,-121.32254028,0.307006840000213
-84.85858154,-121.31903076,0.307006840000213
-84.90881348,-121.33616638,0.307128910000074
-84.9358902,-121.34980774,0.307128910000074
-84.86477661,-121.33503723,0.307128910000074
-84.88517761,-121.32414246,0.307250980000163
-84.86617279,-121.31626129,0.307250980000163
-84.85706329,-121.31947327,0.307250980000163
-84.88800049,-121.34615326,0.307250980000163
-84.87783051,-121.31912994,0.307495120000112
-84.85884094,-121.33734131,0.307495120000112
-84.87464905,-121.31964111,0.307617190000201
-84.86959076,-121.31861115,0.307617190000201
-84.85897827,-121.32978058,0.307617190000201
-84.8639679,-121.33599091,0.307617190000201
-84.87042999,-121.32108307,0.307617190000201
-84.85839844,-121.3242569,0.307739260000062
-84.85771179,-121.32946777,0.307739260000062
-84.92015076,-121.34877014,0.307861330000151
-84.90499878,-121.33751678,0.307861330000151
-84.87586975,-121.31781006,0.307861330000151
-84.88014984,-121.3246994,0.307861330000151
-84.87754059,-121.32010651,0.307983400000012
-84.87757111,-121.34262848,0.307983400000012
-84.92424011,-121.33812714,0.3081054700001
-84.88986206,-121.32601166,0.3081054700001
-84.85040283,-121.33316803,0.3081054700001
-84.93444061,-121.34771729,0.308227540000189
-84.91631317,-121.34362793,0.308227540000189
-84.89755249,-121.32025146,0.308227540000189
-84.86842346,-121.33709717,0.308227540000189
-84.88096619,-121.32245636,0.30834961000005
-84.88540649,-121.32409668,0.308471680000139
-84.8681488,-121.31652832,0.308471680000139
-84.91664886,-121.33287048,0.30859375
-84.85945892,-121.322258,0.30859375
-84.85977936,-121.32776642,0.30859375
-84.87890625,-121.32791138,0.308715820000089
-84.85916901,-121.32324982,0.308715820000089
-84.90496063,-121.33071899,0.309082030000127
-84.88690948,-121.3241272,0.309204100000215
-84.87715912,-121.31828308,0.309326170000077
-84.88153076,-121.32019806,0.309326170000077
-84.88657379,-121.3181076,0.309448250000059
-84.88111877,-121.32518005,0.309448250000059
-84.85678864,-121.31913757,0.309448250000059
-84.86244965,-121.33364105,0.309448250000059
-84.87725067,-121.32489777,0.309570320000148
-84.92192841,-121.34726715,0.309570320000148
-84.8781662,-121.32333374,0.309570320000148
-84.86859131,-121.31802368,0.309570320000148
-84.92037964,-121.34896851,0.309692390000009
-84.90184784,-121.32585144,0.309692390000009
-84.85968781,-121.32247925,0.309692390000009
-84.88076019,-121.32212067,0.309814460000098
-84.87899017,-121.32109833,0.309814460000098
-84.87918854,-121.32260132,0.309814460000098
-84.85621643,-121.32135773,0.309814460000098
-84.90428925,-121.33567047,0.310058600000048
-84.8609314,-121.33403015,0.310058600000048
-84.88715363,-121.32460785,0.310180670000136
-84.91731262,-121.34284973,0.310180670000136
-84.9172287,-121.34558868,0.310180670000136
-84.87854004,-121.31957245,0.310180670000136
-84.87432861,-121.34146118,0.310180670000136
-84.86618042,-121.32791901,0.310180670000136
-84.85774994,-121.3330307,0.310180670000136
-84.8557663,-121.31958008,0.310302740000225
-84.87863159,-121.32048798,0.310424810000086
-84.86139679,-121.31575012,0.310424810000086
-84.87420654,-121.32804871,0.310424810000086
-84.87175751,-121.32063293,0.310546880000174
-84.87718964,-121.3225174,0.310546880000174
-84.87825012,-121.34407043,0.310546880000174
-84.86759949,-121.31719971,0.310546880000174
-84.86106873,-121.3259964,0.310546880000174
-84.8861084,-121.34832764,0.310791020000124
-84.86588287,-121.31613922,0.310791020000124
-84.86437225,-121.31658936,0.310791020000124
-84.86546326,-121.30387115,0.310791020000124
-84.86080933,-121.31997681,0.310791020000124
-84.85942841,-121.3221817,0.310913090000213
-84.90354156,-121.33512115,0.311035160000074
-84.88247681,-121.32092285,0.311035160000074
-84.87799835,-121.32053375,0.311035160000074
-84.87545776,-121.32144165,0.311035160000074
-84.86334229,-121.33281708,0.311035160000074
-84.8600769,-121.32544708,0.311035160000074
-84.92236328,-121.34898376,0.311157230000163
-84.90133667,-121.33354187,0.311157230000163
-84.86575317,-121.33563995,0.311157230000163
-84.8604126,-121.31494904,0.311157230000163
-84.86244965,-121.32952881,0.311157230000163
-84.92019653,-121.34616089,0.311279300000024
-84.88202667,-121.31939697,0.311279300000024
-84.88807678,-121.32585144,0.311279300000024
-84.86398315,-121.32124329,0.311401370000112
-84.90815735,-121.33123779,0.311645510000062
-84.91574097,-121.34449768,0.311645510000062
-84.88981628,-121.32588959,0.311767580000151
-84.93473816,-121.34485626,0.311889650000012
-84.88014984,-121.32331848,0.311889650000012
-84.85861206,-121.3163681,0.311889650000012
-84.85767365,-121.32234192,0.311889650000012
-84.86663055,-121.31970215,0.311889650000012
-84.8675766,-121.33006287,0.311889650000012
-84.85939026,-121.32891846,0.311889650000012
-84.85159302,-121.33231354,0.311889650000012
-84.87793732,-121.3217392,0.3120117200001
-84.86517334,-121.33009338,0.3120117200001
-84.90570831,-121.32965088,0.312133790000189
-84.88691711,-121.32253265,0.312133790000189
-84.8642807,-121.33381653,0.312133790000189
-84.86675262,-121.32237244,0.31225586000005
-84.89745331,-121.32962036,0.31225586000005
-84.86379242,-121.32627869,0.31225586000005
-84.85941315,-121.33193207,0.312377930000139
-84.88696289,-121.32125854,0.312622070000089
-84.85986328,-121.31587982,0.312622070000089
-84.87180328,-121.3243866,0.312622070000089
-84.90381622,-121.33381653,0.312744140000177
-84.87432098,-121.31950378,0.312866210000038
-84.92012787,-121.34761047,0.312866210000038
-84.86042786,-121.32164764,0.312866210000038
-84.88710785,-121.32450867,0.312988280000127
-84.86753082,-121.31513214,0.312988280000127
-84.88175964,-121.31845856,0.313110350000215
-84.91761017,-121.34050751,0.313110350000215
-84.91030121,-121.33426666,0.313110350000215
-84.93354034,-121.34278107,0.313110350000215
-84.86704254,-121.31835175,0.313110350000215
-84.93132782,-121.34145355,0.313232420000077
-84.89720154,-121.32933044,0.313232420000077
-84.85932159,-121.32485962,0.313232420000077
-84.85884094,-121.31658173,0.313232420000077
-84.8713913,-121.32137299,0.313354500000059
-84.85736084,-121.3235321,0.313354500000059
-84.8653717,-121.32038116,0.313354500000059
-84.85787201,-121.33283234,0.313354500000059
-84.86640167,-121.3186264,0.313354500000059
-84.91976166,-121.34332275,0.313476570000148
-84.90232849,-121.33300018,0.313476570000148
-84.86209869,-121.31617737,0.313476570000148
-84.85952759,-121.31835175,0.313476570000148
-84.92169189,-121.34562683,0.313598640000009
-84.88289642,-121.32260132,0.313598640000009
-84.87841797,-121.32196045,0.313598640000009
-84.8658905,-121.33055878,0.313720710000098
-84.92041016,-121.34632874,0.313842780000186
-84.88620758,-121.3207016,0.313842780000186
-84.91686249,-121.33995056,0.314086920000136
-84.88568115,-121.32167053,0.314086920000136
-84.92408752,-121.34868622,0.314208990000225
-84.91877747,-121.34250641,0.314208990000225
-84.86009979,-121.31584167,0.314208990000225
-84.86038208,-121.32286072,0.314208990000225
-84.85730743,-121.32476044,0.314208990000225
-84.86901855,-121.32232666,0.314331060000086
-84.87666321,-121.3221283,0.314331060000086
-84.86135864,-121.31536865,0.314453130000174
-84.85572052,-121.31968689,0.314453130000174
-84.85870361,-121.32028961,0.314575200000036
-84.90988159,-121.33119965,0.314697270000124
-84.89672852,-121.32776642,0.314697270000124
-84.89692688,-121.32927704,0.314697270000124
-84.90162659,-121.33093262,0.314819340000213
-84.86070251,-121.32034302,0.314819340000213
-84.87111664,-121.32637024,0.314819340000213
-84.91139221,-121.33875275,0.314941410000074
-84.91648102,-121.34367371,0.314941410000074
-84.90457153,-121.33302307,0.314941410000074
-84.86541748,-121.32900238,0.314941410000074
-84.86131287,-121.32460785,0.314941410000074
-84.85579681,-121.31693268,0.314941410000074
-84.85424805,-121.3186264,0.314941410000074
-84.86215973,-121.33319092,0.314941410000074
-84.88643646,-121.32092285,0.315063480000163
-84.86048889,-121.3188324,0.315063480000163
-84.87110138,-121.33918762,0.315063480000163
-84.86476135,-121.32235718,0.315063480000163
-84.89546204,-121.32820892,0.315185550000024
-84.88941956,-121.32151031,0.315185550000024
-84.88314056,-121.32256317,0.315185550000024
-84.87220001,-121.32044983,0.315185550000024
-84.86824036,-121.33483887,0.315185550000024
-84.92040253,-121.34628296,0.315307620000112
-84.88855743,-121.32498169,0.315307620000112
-84.86685944,-121.33103943,0.315307620000112
-84.85469055,-121.31237793,0.315307620000112
-84.88636017,-121.3234024,0.315429690000201
-84.88308716,-121.32379913,0.315429690000201
-84.85769653,-121.33260345,0.315429690000201
-84.88751221,-121.31867981,0.315551760000062
-84.93350983,-121.34268951,0.315795900000012
-84.88770294,-121.32042694,0.3159179700001
-84.86134338,-121.31556702,0.3159179700001
-84.86057281,-121.32405853,0.3159179700001
-84.87084961,-121.33889771,0.316040040000189
-84.94281769,-121.34898376,0.31616211000005
-84.87860107,-121.32337952,0.31616211000005
-84.87091827,-121.32087708,0.31616211000005
-84.86924744,-121.33409119,0.31616211000005
-84.85787201,-121.32221222,0.31616211000005
-84.88674927,-121.32639313,0.316284180000139
-84.86296082,-121.31936646,0.316284180000139
-84.85942078,-121.32074738,0.316284180000139
-84.85463715,-121.32160187,0.316284180000139
-84.86438751,-121.329422,0.31640625
-84.85782623,-121.31568909,0.31640625
-84.86663055,-121.33106232,0.31640625
-84.86784363,-121.3086319,0.31640625
-84.88651276,-121.31812286,0.316528320000089
-84.86504364,-121.32467651,0.316528320000089
-84.86051178,-121.32553864,0.316528320000089
-84.86152649,-121.30750275,0.316528320000089
-84.91905212,-121.34118652,0.316650390000177
-84.8871994,-121.32013702,0.316650390000177
-84.86872101,-121.31929016,0.316650390000177
-84.86035156,-121.3150177,0.316650390000177
-84.86871338,-121.33506012,0.316650390000177
-84.85778046,-121.31693268,0.316650390000177
-84.85806274,-121.32395172,0.316650390000177
-84.91993713,-121.34446716,0.316772460000038
-84.88278198,-121.34877014,0.316772460000038
-84.85817719,-121.32019806,0.316772460000038
-84.85569763,-121.31961823,0.316772460000038
-84.86991882,-121.32128906,0.316772460000038
-84.92556763,-121.34815216,0.316894530000127
-84.8955307,-121.32566071,0.316894530000127
-84.88082886,-121.34719849,0.316894530000127
-84.8647995,-121.31938171,0.316894530000127
-84.85842133,-121.3336792,0.316894530000127
-84.86174011,-121.31965637,0.317016600000215
-84.92336273,-121.34681702,0.317138670000077
-84.86850739,-121.33352661,0.317138670000077
-84.8662262,-121.3332901,0.317138670000077
-84.86804962,-121.33200836,0.317260750000059
-84.866539,-121.33220673,0.317260750000059
-84.8640213,-121.32512665,0.317260750000059
-84.85421753,-121.31855011,0.317260750000059
-84.86360931,-121.32234955,0.317382820000148
-84.93226624,-121.34184265,0.317504890000009
-84.86119843,-121.32727814,0.317626960000098
-84.86933899,-121.3290329,0.317626960000098
-84.8651123,-121.33496857,0.317626960000098
-84.85957336,-121.33202362,0.317626960000098
-84.85523224,-121.31806946,0.317749030000186
-84.92241669,-121.34475708,0.317993170000136
-84.92462158,-121.34632874,0.318115240000225
-84.88948059,-121.31865692,0.318115240000225
-84.91883087,-121.33963013,0.318359380000174
-84.93618011,-121.34443665,0.318359380000174
-84.91976166,-121.34165955,0.318359380000174
-84.85784149,-121.3223877,0.318359380000174
-84.85482025,-121.32303619,0.318359380000174
-84.86756134,-121.32965088,0.318359380000174
-84.92064667,-121.34494019,0.318481450000036
-84.8883667,-121.32212067,0.318481450000036
-84.86360168,-121.33007813,0.318481450000036
-84.86135864,-121.33193207,0.318481450000036
-84.90184021,-121.33106232,0.318603520000124
-84.88645172,-121.32730865,0.318603520000124
-84.87542725,-121.31520844,0.318725590000213
-84.86282349,-121.3152771,0.318725590000213
-84.85469818,-121.31877136,0.318725590000213
-84.85800934,-121.32488251,0.318725590000213
-84.86557007,-121.32949829,0.318725590000213
-84.91748047,-121.33455658,0.318847660000074
-84.88868713,-121.31961823,0.318847660000074
-84.85379791,-121.31548309,0.318847660000074
-84.86367798,-121.30680084,0.318847660000074
-84.89411926,-121.3217926,0.318969730000163
-84.88173676,-121.32563782,0.318969730000163
-84.86228943,-121.31600189,0.318969730000163
-84.91703033,-121.33303833,0.319091800000024
-84.89053345,-121.32466888,0.319091800000024
-84.85861206,-121.31362915,0.319091800000024
-84.85759735,-121.31410217,0.319091800000024
-84.86640167,-121.31903839,0.319091800000024
-84.85180664,-121.33244324,0.319091800000024
-84.88105011,-121.32015991,0.319213870000112
-84.8901062,-121.32215118,0.319213870000112
-84.87065125,-121.32051849,0.319213870000112
-84.89346313,-121.32675934,0.319335940000201
-84.86775208,-121.33293915,0.319335940000201
-84.85916138,-121.33152008,0.319335940000201
-84.90892792,-121.33576202,0.319580080000151
-84.92240143,-121.3447113,0.319580080000151
-84.86917114,-121.31970978,0.319702150000012
-84.86179352,-121.31571198,0.319702150000012
-84.85717773,-121.31130981,0.319702150000012
-84.89299774,-121.32523346,0.3198242200001
-84.85636139,-121.3132782,0.3198242200001
-84.854599,-121.3214798,0.3198242200001
-84.86914825,-121.33231354,0.3198242200001
-84.9201889,-121.34336853,0.319946290000189
-84.85881042,-121.32286835,0.319946290000189
-84.85999298,-121.32515717,0.319946290000189
-84.86480713,-121.33081818,0.319946290000189
-84.85729218,-121.32331848,0.319946290000189
-84.87152863,-121.3259201,0.32006836000005
-84.8644104,-121.31999969,0.320190430000139
-84.90142059,-121.32798767,0.320190430000139
-84.8896637,-121.32810974,0.320190430000139
-84.86978912,-121.32108307,0.320190430000139
-84.8642807,-121.3252182,0.320190430000139
-84.92027283,-121.34060669,0.3203125
-84.92072296,-121.34236908,0.320434570000089
-84.89945221,-121.32666779,0.320434570000089
-84.86605835,-121.33032227,0.320434570000089
-84.8585968,-121.31358337,0.320556640000177
-84.85362244,-121.31266785,0.320556640000177
-84.85479736,-121.32296753,0.320556640000177
-84.91433716,-121.33815002,0.320678710000038
-84.91845703,-121.34229279,0.320678710000038
-84.88838959,-121.32855988,0.320678710000038
-84.86434937,-121.32927704,0.320678710000038
-84.8587265,-121.32798767,0.320678710000038
-84.88323212,-121.34890747,0.320800780000127
-84.86062622,-121.32814789,0.320800780000127
-84.85944366,-121.33181,0.320800780000127
-84.91924286,-121.34156036,0.320922850000215
-84.88028717,-121.34680939,0.320922850000215
-84.86579132,-121.31800842,0.320922850000215
-84.8640976,-121.33318329,0.320922850000215
-84.9208374,-121.33834839,0.321044920000077
-84.87184143,-121.33727264,0.321044920000077
-84.86444092,-121.31279755,0.321167000000059
-84.86302948,-121.31546021,0.321167000000059
-84.86279297,-121.33096313,0.321167000000059
-84.89559937,-121.32952118,0.321289070000148
-84.86547852,-121.31703186,0.321289070000148
-84.85642242,-121.31874084,0.321289070000148
-84.87037659,-121.3204422,0.321411140000009
-84.89025116,-121.32457733,0.321533210000098
-84.88192749,-121.32682037,0.321533210000098
-84.85764313,-121.31176758,0.321533210000098
-84.9070282,-121.33187866,0.321655280000186
-84.91065979,-121.33574677,0.321655280000186
-84.85604858,-121.32247162,0.321655280000186
-84.85987854,-121.32346344,0.321655280000186
-84.85466003,-121.31891632,0.321777350000048
-84.85901642,-121.33429718,0.321777350000048
-84.86830902,-121.33101654,0.321899420000136
-84.89325714,-121.32415771,0.322021490000225
-84.86599731,-121.33178711,0.322021490000225
-84.85694885,-121.3099823,0.322021490000225
-84.92397308,-121.34166718,0.322143560000086
-84.85987854,-121.3120575,0.322265630000174
-84.87902069,-121.31790161,0.322387700000036
-84.88587952,-121.32817078,0.322387700000036
-84.86480713,-121.32798767,0.322509770000124
-84.90991211,-121.33519745,0.322631840000213
-84.85035706,-121.32987213,0.322631840000213
-84.89629364,-121.32324219,0.322753910000074
-84.90435791,-121.32875061,0.322753910000074
-84.8957901,-121.33097839,0.322753910000074
-84.86302948,-121.32836151,0.322753910000074
-84.86403656,-121.31468201,0.322875980000163
-84.89402771,-121.32315826,0.322998050000024
-84.88265228,-121.3272934,0.322998050000024
-84.88246918,-121.34831238,0.322998050000024
-84.86475372,-121.32507324,0.322998050000024
-84.89517212,-121.32669067,0.323120120000112
-84.8737793,-121.33851624,0.323120120000112
-84.92141724,-121.34281158,0.323242190000201
-84.8572998,-121.32196045,0.323364260000062
-84.88111877,-121.31947327,0.323486330000151
-84.88018799,-121.32569885,0.323486330000151
-84.87158203,-121.33692932,0.323486330000151
-84.86109161,-121.32833099,0.323608400000012
-84.86689758,-121.32160187,0.323608400000012
-84.90489197,-121.32774353,0.3237304700001
-84.89099884,-121.32377625,0.3237304700001
-84.86519623,-121.33271027,0.3237304700001
-84.91822815,-121.34068298,0.323852540000189
-84.8519516,-121.30899811,0.323852540000189
-84.86018372,-121.32991028,0.323852540000189
-84.85218048,-121.33278656,0.323852540000189
-84.92292786,-121.34233093,0.32397461000005
-84.88957977,-121.32923889,0.32397461000005
-84.86393738,-121.33290863,0.32397461000005
-84.85864258,-121.31873322,0.32397461000005
-84.86527252,-121.32904816,0.32397461000005
-84.89292145,-121.32633972,0.324096680000139
-84.8553009,-121.31385803,0.324096680000139
-84.85954285,-121.3318634,0.324096680000139
-84.92614746,-121.34317017,0.32421875
-84.87715912,-121.34184265,0.32421875
-84.86299896,-121.33112335,0.32421875
-84.85762024,-121.31942749,0.32421875
-84.86543274,-121.32745361,0.32421875
