"X","Y","Z"
-84.99469757,-121.34934998,0.00354004000018904
-84.99276733,-121.34896851,0.00512696000009782
-84.99057007,-121.34855652,0.00598145000003569
-84.95368958,-121.34455872,0.00964356000008593
-84.95896912,-121.33235931,0.0097656300001745
-84.96602631,-121.34580994,0.00988770000003569
-84.99359131,-121.34384918,0.0104980500000238
-84.99136353,-121.34667969,0.0104980500000238
-84.95787811,-121.34616089,0.0109863300001507
-84.9536972,-121.3465271,0.0111084000000119
-84.96782684,-121.34874725,0.0112304700001005
-84.99603271,-121.345047,0.011352540000189
-84.99472046,-121.34922028,0.0118408200000886
-84.97181702,-121.34417725,0.0122070300001269
-84.99292755,-121.33705139,0.0123291000002155
-84.95121765,-121.34414673,0.0128173900000093
-84.95776367,-121.33276367,0.0130615300001864
-84.96333313,-121.34368134,0.0130615300001864
-84.96697235,-121.33309937,0.0131836000000476
-84.99365234,-121.34739685,0.0134277400002247
-84.99523926,-121.34815216,0.0136718800001745
-84.9790802,-121.3394928,0.0139160200001243
-84.99768066,-121.3476181,0.0142822300001626
-84.99636078,-121.33885956,0.0145263700001124
-84.97306824,-121.33448029,0.0145263700001124
-84.99933624,-121.34087372,0.0147705100000621
-84.96000671,-121.32849121,0.0147705100000621
-84.95503998,-121.34288025,0.0150146500000119
-84.99635315,-121.34262848,0.015625
-84.99568176,-121.34668732,0.0158691400001771
-84.99549866,-121.3378067,0.0162353500002155
-84.95084381,-121.34523773,0.0168457100000978
-84.95050812,-121.34771729,0.0169677800001864
-84.97570801,-121.3336792,0.0169677800001864
-84.96121979,-121.32819366,0.0179443400002128
-84.99511719,-121.33705902,0.0183105500000238
-84.98406219,-121.33490753,0.0183105500000238
-84.95445251,-121.34877777,0.0192871100000502
-84.95104218,-121.34538269,0.0203857500000595
-84.98191071,-121.34958649,0.0205078200001481
-84.97543335,-121.33364868,0.0205078200001481
-84.96533203,-121.32711029,0.0209961000000476
-84.95540619,-121.34925079,0.0211181700001362
-84.95005035,-121.32559967,0.0211181700001362
-84.97928619,-121.34539795,0.0223388700001124
-84.98284149,-121.34819031,0.0224609400002009
-84.96967316,-121.34953308,0.0225830100000621
-84.95565033,-121.30188751,0.0233154300001388
-84.95024872,-121.29843903,0.0238037100000383
-84.97145844,-121.34116364,0.0241699200000767
-84.97097015,-121.34403229,0.0249023500000476
-84.98757172,-121.34960175,0.0250244200001362
-84.98800659,-121.34738922,0.0253906300001745
-84.96562958,-121.33991241,0.0260009800001626
-84.98274994,-121.34774017,0.0264892600000621
-84.98365784,-121.34580994,0.0267334000000119
-84.98874664,-121.34822083,0.0270996100000502
-84.97364807,-121.34068298,0.02734375
-84.95789337,-121.30081177,0.0278320300001269
-84.95674896,-121.33869171,0.0281982500000595
-84.97947693,-121.34851074,0.0283203200001481
-84.97502136,-121.33709717,0.0283203200001481
-84.98348236,-121.34557343,0.0284423900000093
-84.98654175,-121.33853912,0.0285644600000978
-84.95980072,-121.30309296,0.0288086000000476
-84.95762634,-121.30052185,0.0288086000000476
-84.98059082,-121.34735107,0.0288086000000476
-84.990448,-121.34779358,0.0289306700001362
-84.95195007,-121.29833221,0.0289306700001362
-84.98570251,-121.34625244,0.0289306700001362
-84.95990753,-121.34338379,0.0292968800001745
-84.95025635,-121.29599762,0.029785160000074
-84.96109009,-121.30133057,0.0302734400002009
-84.99269104,-121.34880066,0.0303955100000621
-84.99185181,-121.34233093,0.0305175800001507
-84.96439362,-121.29968262,0.0305175800001507
-84.97441101,-121.29949951,0.0306396500000119
-84.98705292,-121.34562683,0.0306396500000119
-84.99545288,-121.33875275,0.030883790000189
-84.96101379,-121.33148956,0.030883790000189
-84.95368195,-121.32935333,0.0311279300001388
-84.96826172,-121.34464264,0.0311279300001388
-84.98709106,-121.34213257,0.03125
-84.95123291,-121.29647827,0.0313720700000886
-84.97582245,-121.30177307,0.0314941400001771
-84.96135712,-121.34554291,0.0316162100000383
-84.98953247,-121.3338089,0.0319824200000767
-84.97577667,-121.3030014,0.0322265700001481
-84.99297333,-121.3379364,0.0323486400000093
-84.99091339,-121.33869171,0.0323486400000093
-84.95616913,-121.33564758,0.0323486400000093
-84.98310852,-121.34233856,0.0325927800001864
-84.97176361,-121.30310059,0.0327148500000476
-84.9954071,-121.33866882,0.0330810600000859
-84.96869659,-121.30499268,0.0330810600000859
-84.99221802,-121.33830261,0.0330810600000859
-84.95349121,-121.3347702,0.0333252000000357
-84.95567322,-121.34893799,0.033691410000074
-84.98783112,-121.34021759,0.0339355500000238
-84.98735809,-121.34620667,0.0339355500000238
-84.95394135,-121.29672241,0.0340576200001124
-84.95050049,-121.33390045,0.0340576200001124
-84.98206329,-121.34027863,0.0341796900002009
-84.9885025,-121.33502197,0.0343017600000621
-84.97718048,-121.30522919,0.0344238300001507
-84.95274353,-121.33421326,0.0345459000000119
-84.98693085,-121.33017731,0.0345459000000119
-84.99549103,-121.34523773,0.0346679700001005
-84.96140289,-121.33699036,0.034790040000189
-84.97338104,-121.30658722,0.0349121100000502
-84.96560669,-121.33309174,0.0349121100000502
-84.96810913,-121.30715942,0.0350341800001388
-84.95078278,-121.2935791,0.03515625
-84.96363831,-121.3372879,0.0352783200000886
-84.96134949,-121.33847046,0.0352783200000886
-84.97226715,-121.30979156,0.0355224600000383
-84.98275757,-121.34161377,0.0356445300001269
-84.98162842,-121.30657959,0.0357666000002155
-84.95475769,-121.34874725,0.0357666000002155
-84.98610687,-121.34062195,0.0360107500000595
-84.99433136,-121.33499908,0.0361328200001481
-84.95693207,-121.33554077,0.0363769600000978
-84.96109009,-121.33841705,0.0364990300001864
-84.99373627,-121.34426117,0.0366211000000476
-84.98806763,-121.30825806,0.0366211000000476
-84.95472717,-121.33396149,0.0366211000000476
-84.97933197,-121.33585358,0.0368652400002247
-84.97653961,-121.30861664,0.0369873100000859
-84.98753357,-121.30921936,0.0371093800001745
-84.98880768,-121.34185028,0.0371093800001745
-84.97698975,-121.31012726,0.0372314500000357
-84.98905945,-121.34513855,0.0373535200001243
-84.99698639,-121.34763336,0.0374755900002128
-84.99014282,-121.33769989,0.0374755900002128
-84.96035767,-121.34832764,0.0377197300001626
-84.95001221,-121.340271,0.0377197300001626
-84.99346924,-121.33370209,0.0377197300001626
-84.96096802,-121.33898926,0.0378418000000238
-84.95636749,-121.34633636,0.0378418000000238
-84.98478699,-121.30860901,0.0378418000000238
-84.98278046,-121.30879974,0.0378418000000238
-84.99160004,-121.34259796,0.0379638700001124
-84.97302246,-121.30872345,0.0382080100000621
-84.96958923,-121.30660248,0.0383300800001507
-84.99588776,-121.33188629,0.0383300800001507
-84.99417114,-121.34104156,0.0383300800001507
-84.95230103,-121.33081818,0.0384521500000119
-84.95845795,-121.3392334,0.0385742200001005
-84.99150848,-121.34308624,0.0385742200001005
-84.97930908,-121.32614899,0.0385742200001005
-84.98317719,-121.3115387,0.038696290000189
-84.97125244,-121.34068298,0.038696290000189
-84.9561615,-121.32330322,0.0388183600000502
-84.96032715,-121.3298111,0.0389404300001388
-84.99889374,-121.34947968,0.0390625
-84.97966766,-121.31191254,0.0390625
-84.95440674,-121.32736206,0.0390625
-84.98529053,-121.34261322,0.0390625
-84.99284363,-121.34741211,0.0391845700000886
-84.96180725,-121.33570099,0.0393066400001771
-84.98664093,-121.31262207,0.0394287100000383
-84.99507141,-121.33849335,0.0396728500002155
-84.99646759,-121.34893036,0.0397949200000767
-84.9726181,-121.3441925,0.0397949200000767
-84.95459747,-121.34461212,0.0399170000000595
-84.95690155,-121.29612732,0.0399170000000595
-84.99199677,-121.33737946,0.0399170000000595
-84.98493195,-121.31128693,0.0401611400000093
-84.98439026,-121.31227875,0.0401611400000093
-84.98500824,-121.31629944,0.0402832100000978
-84.99899292,-121.32401276,0.0402832100000978
-84.95316315,-121.34568024,0.0402832100000978
-84.99981689,-121.34539795,0.0404052800001864
-84.96159363,-121.33705139,0.0405273500000476
-84.9774704,-121.32314301,0.0405273500000476
-84.98941803,-121.31141663,0.0406494200001362
-84.97559357,-121.34500885,0.0406494200001362
-84.95336151,-121.34378815,0.0406494200001362
-84.99878693,-121.33307648,0.0407714900002247
-84.96791077,-121.33474731,0.0407714900002247
-84.95851898,-121.33119202,0.0407714900002247
-84.96235657,-121.33631897,0.0407714900002247
-84.95217896,-121.3417511,0.0407714900002247
-84.99376678,-121.33753204,0.0408935600000859
-84.99137878,-121.33934784,0.0408935600000859
-84.98210144,-121.31342316,0.0411377000000357
-84.96015167,-121.33473206,0.0411377000000357
-84.95774078,-121.33190155,0.0412597700001243
-84.99025726,-121.34735107,0.0413818400002128
-84.99169159,-121.31047058,0.0413818400002128
-84.98993683,-121.31040955,0.0413818400002128
-84.9881897,-121.31060791,0.0413818400002128
-84.9618988,-121.33477783,0.0413818400002128
-84.99488831,-121.33310699,0.0413818400002128
-84.99594879,-121.31034851,0.0417480500000238
-84.95979309,-121.33345795,0.0418701200001124
-84.96668243,-121.30239105,0.0418701200001124
-84.99182892,-121.33714294,0.0418701200001124
-84.99667358,-121.34751892,0.0419921900002009
-84.98677826,-121.31529999,0.0419921900002009
-84.97530365,-121.34571075,0.0419921900002009
-84.99597931,-121.30908203,0.0422363300001507
-84.97718048,-121.31021881,0.0422363300001507
-84.99373627,-121.30874634,0.0423584000000119
-84.99095917,-121.33883667,0.0423584000000119
-84.98233032,-121.31337738,0.0427246100000502
-84.98104858,-121.3456192,0.0427246100000502
-84.98750305,-121.34887695,0.0428466800001388
-84.95716095,-121.29479218,0.0428466800001388
-84.99918365,-121.33138275,0.04296875
-84.993927,-121.34294128,0.04296875
-84.99066162,-121.3108902,0.04296875
-84.97667694,-121.30992889,0.04296875
-84.99057007,-121.31362915,0.0430908200000886
-84.97181702,-121.3055191,0.0430908200000886
-84.96781158,-121.33717346,0.0430908200000886
-84.99275208,-121.33873749,0.0430908200000886
-84.95919037,-121.34400177,0.0430908200000886
-84.98963165,-121.31159973,0.0432128900001771
-84.96217346,-121.33393097,0.0434570300001269
-84.99514771,-121.31101227,0.0434570300001269
-84.99436951,-121.31198883,0.0435791000002155
-84.98750305,-121.31552124,0.0435791000002155
-84.97077942,-121.3377533,0.0435791000002155
-84.98973846,-121.34864044,0.0437011700000767
-84.97653961,-121.34544373,0.0437011700000767
-84.97216797,-121.34130096,0.0437011700000767
-84.96083832,-121.34593964,0.0438232500000595
-84.99212646,-121.34046173,0.0438232500000595
-84.97467041,-121.34136963,0.0440673900000093
-84.99430847,-121.33837128,0.0440673900000093
-84.98789978,-121.34719849,0.0445556700001362
-84.9659729,-121.30027008,0.0445556700001362
-84.99790192,-121.33766174,0.0446777400002247
-84.96221161,-121.34153748,0.0447998100000859
-84.9927597,-121.31490326,0.0447998100000859
-84.97640991,-121.34140015,0.0447998100000859
-84.98406219,-121.31336212,0.0449218800001745
-84.99256897,-121.33850098,0.0449218800001745
-84.9890213,-121.33896637,0.0449218800001745
-84.97251892,-121.34047699,0.0449218800001745
-84.99284363,-121.31239319,0.0450439500000357
-84.96135712,-121.32763672,0.0452880900002128
-84.98378754,-121.34487915,0.0452880900002128
-84.9569397,-121.34751129,0.0452880900002128
-84.95304108,-121.28957367,0.045410160000074
-84.95098114,-121.34893799,0.0455322300001626
-84.98047638,-121.34676361,0.0455322300001626
-84.98415375,-121.34912872,0.0456543000000238
-84.98105621,-121.31651306,0.0456543000000238
-84.99822998,-121.33428192,0.0457763700001124
-84.97801971,-121.33587646,0.0457763700001124
-84.99185944,-121.31157684,0.0460205100000621
-84.98854065,-121.31346893,0.0460205100000621
-84.98948669,-121.31524658,0.0460205100000621
-84.98345947,-121.34709167,0.0460205100000621
-84.95089722,-121.33277893,0.0460205100000621
-84.99124908,-121.31665802,0.0460205100000621
-84.99530029,-121.32480621,0.0460205100000621
-84.96302032,-121.32214355,0.0462646500000119
-84.99297333,-121.34581757,0.0463867200001005
-84.99433899,-121.31188965,0.046508790000189
-84.95326996,-121.28978729,0.0466308600000502
-84.9640274,-121.32702637,0.0467529300001388
-84.99181366,-121.31279755,0.0467529300001388
-84.97501373,-121.30625153,0.046875
-84.99195099,-121.33447266,0.0469970700000886
-84.98777771,-121.33966064,0.0469970700000886
-84.98593903,-121.34764099,0.0471191400001771
-84.96212006,-121.34120178,0.0472412100000383
-84.98648071,-121.31487274,0.0472412100000383
-84.97353363,-121.33363342,0.0472412100000383
-84.99372864,-121.30734253,0.0473632800001269
-84.95133972,-121.31533813,0.0473632800001269
-84.98738098,-121.31012726,0.0476074200000767
-84.99028015,-121.31321716,0.0477295000000595
-84.95288849,-121.33252716,0.0477295000000595
-84.95629883,-121.34314728,0.0478515700001481
-84.95069122,-121.34900665,0.0478515700001481
-84.9581604,-121.33074951,0.0480957100000978
-84.98210907,-121.31044006,0.0480957100000978
-84.99002075,-121.34034729,0.0482177800001864
-84.99272919,-121.30677032,0.0483398500000476
-84.95642853,-121.33914185,0.0483398500000476
-84.99285126,-121.31102753,0.0484619200001362
-84.96909332,-121.34127808,0.0485839900002247
-84.99289703,-121.33582306,0.0487060600000859
-84.98818207,-121.34620667,0.0488281300001745
-84.9858017,-121.3367691,0.0488281300001745
-84.95288086,-121.34227753,0.0490722700001243
-84.98948669,-121.31390381,0.0490722700001243
-84.99581909,-121.33705902,0.0490722700001243
-84.99552155,-121.3246994,0.0491943400002128
-84.96234894,-121.32395172,0.049316410000074
-84.97380066,-121.30413055,0.049316410000074
-84.99249268,-121.34734344,0.0494384800001626
-84.99912262,-121.33682251,0.0494384800001626
-84.97934723,-121.31699371,0.0494384800001626
-84.99659729,-121.31062317,0.0495605500000238
-84.99365997,-121.30850983,0.0496826200001124
-84.95796967,-121.33738708,0.0496826200001124
-84.96843719,-121.29943085,0.0498046900002009
-84.99859619,-121.3325119,0.0499267600000621
-84.97260284,-121.30207062,0.0499267600000621
