"X","Y","Z"
-84.99243164,-121.48766327,0.350219730000163
-84.99964142,-121.47634125,0.350463870000112
-84.99804688,-121.48679352,0.350708010000062
-84.99410248,-121.48516083,0.350708010000062
-84.99865723,-121.46909332,0.350708010000062
-84.99558258,-121.49243164,0.350830080000151
-84.99601746,-121.47969818,0.351196290000189
-84.99204254,-121.48989868,0.351440430000139
-84.99944305,-121.47869873,0.351684570000089
-84.99848938,-121.46859741,0.352172850000215
-84.98805237,-121.48658752,0.352172850000215
-84.99881744,-121.47441101,0.353027350000048
-84.9934082,-121.48902893,0.353027350000048
-84.99098206,-121.48809052,0.353271490000225
-84.99973297,-121.47899628,0.353393560000086
-84.98206329,-121.48036957,0.353393560000086
-84.99967194,-121.49279785,0.354003910000074
-84.99832916,-121.49394989,0.354248050000024
-84.98474884,-121.4815979,0.354370120000112
-84.99604034,-121.47808838,0.354492190000201
-84.98937988,-121.45137024,0.354736330000151
-84.99784851,-121.48364258,0.354858400000012
-84.99015045,-121.48654175,0.354858400000012
-84.98323059,-121.481987,0.354858400000012
-84.99410248,-121.46177673,0.355102540000189
-84.9952774,-121.49172211,0.355346680000139
-84.99619293,-121.47046661,0.35546875
-84.99507141,-121.48452759,0.355590820000089
-84.99624634,-121.48655701,0.355712890000177
-84.99508667,-121.47190094,0.355957030000127
-84.99658966,-121.49133301,0.356079100000215
-84.98921967,-121.45088196,0.356201170000077
-84.99552155,-121.46668243,0.356567390000009
-84.99620056,-121.49331665,0.356811530000186
-84.99021149,-121.4865799,0.356811530000186
-84.998909,-121.47798157,0.356933600000048
-84.98081207,-121.47531128,0.357055670000136
-84.97660828,-121.47447968,0.357177740000225
-84.99765015,-121.47354126,0.357543950000036
-84.99652863,-121.47699738,0.357666020000124
-84.99619293,-121.49057007,0.357666020000124
-84.9931488,-121.49108887,0.357910160000074
-84.97770691,-121.47357178,0.357910160000074
-84.99210358,-121.48233795,0.358276370000112
-84.9885788,-121.45336151,0.358276370000112
-84.99913025,-121.49507904,0.358398440000201
-84.98956299,-121.46022034,0.358520510000062
-84.99472046,-121.47866058,0.358642580000151
-84.98240662,-121.47796631,0.358764650000012
-84.99272156,-121.47859192,0.3588867200001
-84.99919128,-121.48729706,0.359008790000189
-84.99562836,-121.47274017,0.35913086000005
-84.99021149,-121.45552063,0.359619140000177
-84.99137115,-121.48571014,0.359863280000127
-84.99163818,-121.48873901,0.359985350000215
-84.98577118,-121.45166779,0.360351570000148
-84.9826889,-121.47825623,0.360473640000009
-84.98985291,-121.46051788,0.360595710000098
-84.99156952,-121.457901,0.360839850000048
-84.99475098,-121.49101257,0.360961920000136
-84.98893738,-121.45645142,0.361450200000036
-84.99210358,-121.46421814,0.361450200000036
-84.9695282,-121.46095276,0.361694340000213
-84.99751282,-121.47544098,0.361816410000074
-84.99890137,-121.48005676,0.361938480000163
-84.9912262,-121.45964813,0.362304690000201
-84.98074341,-121.47512817,0.362304690000201
-84.98767853,-121.48269653,0.362548830000151
-84.97271729,-121.46546936,0.362548830000151
-84.99125671,-121.46266937,0.36303711000005
-84.99214172,-121.48681641,0.36303711000005
-84.98963165,-121.45477295,0.363159180000139
-84.99434662,-121.48750305,0.36328125
-84.99452209,-121.47550201,0.363403320000089
-84.96470642,-121.45607758,0.363647460000038
-84.99726105,-121.49224854,0.363769530000127
-84.99192047,-121.45797729,0.364013670000077
-84.99510193,-121.47177124,0.364013670000077
-84.99606323,-121.47560883,0.364135750000059
-84.97988892,-121.47383118,0.364135750000059
-84.99494171,-121.48548889,0.364379890000009
-84.98462677,-121.4777298,0.364990240000225
-84.99941254,-121.48114777,0.364990240000225
-84.98014069,-121.47437286,0.365356450000036
-84.98930359,-121.48236847,0.365478520000124
-84.96875763,-121.45944214,0.365478520000124
-84.99559021,-121.47257996,0.365722660000074
-84.98973083,-121.45156097,0.366210940000201
-84.9992218,-121.47789764,0.366455080000151
-84.98400116,-121.45111847,0.3666992200001
-84.990448,-121.48423004,0.3666992200001
-84.98310852,-121.47537994,0.366821290000189
-84.99581909,-121.48967743,0.367675780000127
-84.98932648,-121.45079803,0.367797850000215
-84.9900589,-121.48322296,0.367919920000077
-84.97531891,-121.46650696,0.368164070000148
-84.96392822,-121.45182037,0.368286140000009
-84.98249054,-121.47434998,0.368286140000009
-84.98963165,-121.46012115,0.368530280000186
-84.96595764,-121.45500183,0.368896490000225
-84.99752045,-121.48892212,0.369262700000036
-84.99742889,-121.48908234,0.369384770000124
-84.99166107,-121.48587036,0.369384770000124
-84.99430847,-121.48734283,0.369506840000213
-84.99078369,-121.46198273,0.369750980000163
-84.98430634,-121.47727203,0.369750980000163
-84.97580719,-121.46733093,0.369873050000024
-84.96778107,-121.45791626,0.370239260000062
-84.99881744,-121.4909668,0.370483400000012
-84.97360229,-121.46691132,0.370483400000012
-84.98725128,-121.48178101,0.37084961000005
-84.97942352,-121.47289276,0.370971680000139
-84.99217224,-121.48644257,0.37109375
-84.99062347,-121.46148682,0.371582030000127
-84.99999237,-121.4925766,0.371704100000215
-84.99169922,-121.48314667,0.371826170000077
-84.99774933,-121.49240875,0.372070320000148
-84.99514008,-121.48423767,0.372192390000009
-84.97299194,-121.46588898,0.372436530000186
-84.98796844,-121.48287201,0.372558600000048
-84.99356079,-121.46299744,0.373168950000036
-84.98661804,-121.45243073,0.373291020000124
-84.97746277,-121.47000885,0.373291020000124
-84.99066925,-121.48410034,0.373413090000213
-84.990242,-121.4863205,0.373413090000213
-84.99868011,-121.49401093,0.373535160000074
-84.99671936,-121.46777344,0.373779300000024
-84.9942627,-121.48964691,0.373901370000112
-84.98018646,-121.47399902,0.374145510000062
-84.96231842,-121.4522934,0.374267580000151
-84.99228668,-121.48950958,0.3745117200001
-84.99743652,-121.49443054,0.375
-84.96904755,-121.45960236,0.375
-84.99920654,-121.47174835,0.375122070000089
-84.96460724,-121.45549011,0.375122070000089
-84.98023224,-121.47402954,0.375610350000215
-84.9908905,-121.48246765,0.376342780000186
-84.9994278,-121.49510956,0.376464850000048
-84.98737335,-121.45053101,0.376586920000136
-84.99678802,-121.49365234,0.376586920000136
-84.98989868,-121.48558807,0.376708990000225
-84.97000122,-121.46095276,0.376708990000225
-84.99073792,-121.45581818,0.377075200000036
-84.99703217,-121.46835327,0.377197270000124
-84.99172211,-121.48825073,0.377319340000213
-84.99497986,-121.462677,0.377685550000024
-84.99729156,-121.49420929,0.377807620000112
-84.97805786,-121.47062683,0.377807620000112
-84.96154785,-121.45076752,0.377807620000112
-84.99397278,-121.49195099,0.3784179700001
-84.99726105,-121.49170685,0.378540040000189
-84.9984436,-121.47023773,0.37890625
-84.97855377,-121.47119141,0.379028320000089
-84.96669769,-121.45596313,0.379150390000177
-84.99778748,-121.49476624,0.379272460000038
-84.99951935,-121.49516296,0.379394530000127
-84.98303223,-121.47831726,0.379516600000215
-84.9983902,-121.47358704,0.379882820000148
-84.99801636,-121.46972656,0.380126960000098
-84.9942627,-121.49226379,0.380371100000048
-84.99986267,-121.47239685,0.381347660000074
-84.99649048,-121.49295044,0.381347660000074
-84.98219299,-121.47702789,0.381469730000163
-84.99433136,-121.49204254,0.382202150000012
-84.99810791,-121.4953537,0.382690430000139
-84.96459198,-121.45233917,0.382690430000139
-84.98313141,-121.4783783,0.382934570000089
-84.99964905,-121.49497223,0.382934570000089
-84.99812317,-121.46977997,0.383422850000215
-84.96707153,-121.45630646,0.383789070000148
-84.99372101,-121.49101257,0.383911140000009
-84.98475647,-121.48052979,0.384155280000186
-84.99498749,-121.46228027,0.384887700000036
-84.99971008,-121.49501038,0.385009770000124
-84.96935272,-121.4597702,0.385009770000124
-84.99463654,-121.49260712,0.385375980000163
-84.98525238,-121.4813385,0.385864260000062
-84.9931488,-121.48673248,0.385986330000151
-84.97006989,-121.46058655,0.3862304700001
-84.99887848,-121.47088623,0.386352540000189
-84.99511719,-121.49342346,0.386596680000139
-84.99717712,-121.48558044,0.38671875
-84.98795319,-121.48558044,0.38671875
-84.99256897,-121.45861053,0.386840820000089
-84.99410248,-121.48021698,0.386962890000177
-84.99977875,-121.47438812,0.387084960000038
-84.99655914,-121.47353363,0.387329100000215
-84.99801636,-121.49516296,0.387451170000077
-84.97145081,-121.46273041,0.387573250000059
-84.98911285,-121.48719025,0.387695320000148
-84.99352264,-121.45670319,0.388305670000136
-84.99337006,-121.49079895,0.388427740000225
-84.99716949,-121.46803284,0.388671880000174
-84.99539948,-121.4713974,0.388671880000174
-84.99072266,-121.48959351,0.388793950000036
-84.9998703,-121.47853088,0.388916020000124
-84.97216797,-121.46381378,0.389038090000213
-84.9988327,-121.47920227,0.389526370000112
-84.99162292,-121.46234131,0.389526370000112
-84.97486877,-121.46804047,0.389648440000201
-84.9937973,-121.4569931,0.389770510000062
-84.99450684,-121.48966217,0.389892580000151
-84.99581909,-121.48901367,0.3901367200001
-84.99208832,-121.48872375,0.390502930000139
-84.99665833,-121.48493958,0.390747070000089
-84.97760773,-121.47203827,0.390991210000038
-84.99411011,-121.48607635,0.391479500000059
-84.99385834,-121.4600296,0.391479500000059
-84.98988342,-121.4597168,0.391601570000148
-84.98699951,-121.48383331,0.391723640000009
-84.99550629,-121.48110962,0.391845710000098
-84.99514771,-121.47683716,0.391967780000186
-84.9963913,-121.47277832,0.391967780000186
-84.99739075,-121.47714996,0.392211920000136
-84.97898102,-121.47416687,0.392211920000136
-84.99542999,-121.47583008,0.392333990000225
-84.99028015,-121.45173645,0.392456060000086
-84.99320984,-121.48483276,0.392578130000174
-84.98809814,-121.45407867,0.392700200000036
-84.98925018,-121.48426819,0.392944340000213
-84.98947906,-121.45896149,0.393066410000074
-84.99894714,-121.49069214,0.393188480000163
-84.99622345,-121.47228241,0.393188480000163
-84.98790741,-121.47914886,0.393310550000024
-84.99241638,-121.46347046,0.393920900000012
-84.993927,-121.48590851,0.3940429700001
-84.98439026,-121.47963715,0.394165040000189
-84.99781036,-121.47492981,0.394409180000139
-84.98680878,-121.45200348,0.39453125
-84.98766327,-121.45082092,0.394775390000177
-84.974823,-121.46762085,0.395141600000215
-84.99550629,-121.48000336,0.395263670000077
-84.98661041,-121.47733307,0.395385750000059
-84.99633789,-121.47750854,0.395751960000098
-84.99485779,-121.48751068,0.395751960000098
-84.98419952,-121.47640228,0.396240240000225
-84.98867798,-121.48027039,0.396728520000124
-84.99337769,-121.47561646,0.396850590000213
-84.96279144,-121.45214844,0.396972660000074
-84.99376678,-121.47886658,0.397460940000201
-84.99516296,-121.48755646,0.397460940000201
-84.98448944,-121.45085907,0.397705080000151
-84.97039032,-121.46103668,0.397705080000151
-84.98938751,-121.48135376,0.3979492200001
-84.97576904,-121.4662323,0.3979492200001
-84.98294067,-121.47406769,0.398071290000189
-84.98806,-121.45667267,0.39819336000005
-84.97070313,-121.46109009,0.399414070000148
-84.98944855,-121.45880127,0.399658210000098
-84.99012756,-121.48217773,0.399658210000098
-84.99520874,-121.47984314,0.399780280000186
-84.99456024,-121.48457336,0.399902350000048
-84.98210144,-121.47277832,0.400146490000225
-84.98053741,-121.47341156,0.400146490000225
-84.97402191,-121.46386719,0.400268560000086
-84.99307251,-121.48668671,0.400512700000036
-84.99597931,-121.46916199,0.400512700000036
-84.99658966,-121.48336029,0.400634770000124
-84.96179199,-121.45037079,0.400634770000124
-84.99720764,-121.47962189,0.400756840000213
-84.99732208,-121.49330139,0.400756840000213
-84.9943924,-121.46347046,0.400878910000074
-84.99495697,-121.47953796,0.401000980000163
-84.9958725,-121.4745636,0.401123050000024
-84.99977875,-121.47167969,0.401367190000201
-84.98281097,-121.47386169,0.401611330000151
-84.98552704,-121.47783661,0.402221680000139
-84.99781036,-121.49411011,0.402221680000139
-84.96607208,-121.45398712,0.402221680000139
-84.97100067,-121.46164703,0.40234375
-84.98911285,-121.48365021,0.402709960000038
-84.97389984,-121.46340179,0.403320320000148
-84.9625473,-121.45147705,0.403564460000098
-84.9956131,-121.46511841,0.403808600000048
-84.97283936,-121.46433258,0.403808600000048
-84.99049377,-121.48578644,0.404174810000086
-84.966362,-121.45755768,0.404296880000174
-84.97528076,-121.46553802,0.404663090000213
-84.99226379,-121.45709991,0.405029300000024
-84.99990082,-121.49732971,0.405151370000112
-84.99343109,-121.49030304,0.405273440000201
-84.97309113,-121.46486664,0.405273440000201
-84.96620941,-121.4570694,0.406372070000089
-84.99121857,-121.4582901,0.406860350000215
-84.97332764,-121.46240234,0.406860350000215
-84.99723053,-121.47691345,0.407226570000148
-84.99569702,-121.48536682,0.407226570000148
-84.97828674,-121.46981812,0.407226570000148
-84.99436951,-121.46307373,0.407470710000098
-84.99688721,-121.49511719,0.407592780000186
-84.99445343,-121.47754669,0.407714850000048
-84.98143768,-121.47458649,0.407836920000136
-84.99701691,-121.47512054,0.408081060000086
-84.96736908,-121.45594025,0.408569340000213
-84.98348236,-121.4780426,0.409179690000201
-84.9921875,-121.45966339,0.409301760000062
-84.98619843,-121.48201752,0.410034180000139
-84.99521637,-121.48375702,0.41015625
-84.96562958,-121.45332336,0.410400390000177
-84.99784851,-121.46840668,0.411499030000186
-84.9878006,-121.45284271,0.412231450000036
-84.99700928,-121.49545288,0.412231450000036
-84.98223114,-121.47598267,0.412597660000074
-84.9692688,-121.45890808,0.412719730000163
-84.96392059,-121.45046997,0.412841800000024
-84.97200012,-121.46289825,0.4135742200001
-84.99049377,-121.45432281,0.413696290000189
-84.99610138,-121.46279144,0.41381836000005
-84.98657227,-121.48236847,0.414794920000077
-84.98029327,-121.47284698,0.414917000000059
-84.99500275,-121.4888382,0.415039070000148
-84.99307251,-121.48915863,0.415039070000148
-84.99591827,-121.4625473,0.415649420000136
-84.98838806,-121.48529053,0.416015630000174
-84.96762848,-121.45583344,0.416625980000163
-84.99595642,-121.48956299,0.417114260000062
-84.97232819,-121.46322632,0.417114260000062
-84.99900818,-121.47184753,0.418334960000038
-84.99204254,-121.48761749,0.418334960000038
-84.98442078,-121.47924805,0.418457030000127
-84.97371674,-121.46536255,0.418457030000127
-84.99807739,-121.4938736,0.418579100000215
-84.99433899,-121.49082947,0.419677740000225
-84.97511292,-121.46724701,0.419677740000225
-84.99629974,-121.48571777,0.419921880000174
-84.97782135,-121.47148895,0.420532230000163
-84.9994278,-121.49349976,0.420776370000112
-84.99848175,-121.48014069,0.421020510000062
-84.99826813,-121.48288727,0.421264650000012
-84.994133,-121.48783112,0.421508790000189
-84.97982025,-121.47190857,0.421508790000189
-84.99192047,-121.4874115,0.421875
-84.99395752,-121.47956085,0.422485350000215
-84.9655838,-121.455513,0.422607420000077
-84.99578094,-121.47068024,0.423217780000186
-84.97920227,-121.4708786,0.423217780000186
-84.99633789,-121.48275757,0.423339850000048
-84.9919281,-121.48467255,0.423339850000048
-84.9727478,-121.46360016,0.423339850000048
-84.99889374,-121.47268677,0.423583990000225
-84.99452209,-121.47409821,0.423706060000086
-84.99706268,-121.48658752,0.423706060000086
-84.9956665,-121.47870636,0.423828130000174
-84.99227905,-121.467659,0.424194340000213
-84.99855804,-121.47589111,0.424438480000163
-84.96407318,-121.45316315,0.424438480000163
-84.99059296,-121.47982025,0.424804690000201
-84.97859192,-121.46985626,0.425048830000151
-84.98532104,-121.47691345,0.425170900000012
-84.97078705,-121.46047211,0.425170900000012
-84.99450684,-121.47722626,0.425415040000189
-84.99730682,-121.48330688,0.425903320000089
-84.99421692,-121.45955658,0.426025390000177
-84.98777771,-121.47786713,0.426147460000038
-84.98088074,-121.47306061,0.426147460000038
-84.9934082,-121.46376801,0.426635750000059
-84.99606323,-121.46524048,0.426879890000009
-84.98670959,-121.4567337,0.427246100000048
-84.98448181,-121.47561646,0.427246100000048
-84.9883728,-121.46765137,0.427490240000225
-84.98442078,-121.47010803,0.427856450000036
-84.96838379,-121.45706177,0.427856450000036
-84.98551941,-121.46594238,0.428344730000163
-84.98258972,-121.45542908,0.428710940000201
-84.98803711,-121.45010376,0.429321290000189
-84.98177338,-121.46289825,0.429321290000189
-84.97382355,-121.46228027,0.430053710000038
-84.97032928,-121.45352173,0.4331054700001
