"X","Y","Z"
-85.02259827,-121.4848938,0.350463870000112
-85.01177979,-121.48075104,0.350463870000112
-85.00170898,-121.46943665,0.350708010000062
-85.00157166,-121.47646332,0.350952150000012
-85.00068665,-121.48116302,0.350952150000012
-85.02461243,-121.48599243,0.3510742200001
-85.00444794,-121.46974945,0.3515625
-85.02310181,-121.4824295,0.351928710000038
-85.00888062,-121.48282623,0.351928710000038
-85.00006104,-121.47711945,0.352539060000026
-85.00196075,-121.48806,0.352539060000026
-85.00286865,-121.49265289,0.352905270000065
-85.00276947,-121.47154236,0.352905270000065
-85.00843811,-121.47888184,0.353027339999926
-85.01125336,-121.48201752,0.353515620000053
-85.00238037,-121.48635101,0.353515620000053
-85.02417755,-121.48648071,0.353881839999985
-85.00514221,-121.48303223,0.353881839999985
-85.00491333,-121.49582672,0.354003910000074
-85.00251007,-121.49465179,0.354370120000112
-85.0013504,-121.48703003,0.354492189999974
-85.00435638,-121.471138,0.354858400000012
-85.00354767,-121.48796844,0.3549804700001
-85.02580261,-121.4894104,0.35522461000005
-85.02520752,-121.48287964,0.35546875
-85.00405884,-121.47261047,0.355590820000089
-85.00063324,-121.48072052,0.35571288999995
-85.00341797,-121.49324036,0.355834960000038
-85.00206757,-121.4881134,0.355957030000127
-85.00398254,-121.48300171,0.356323239999938
-85.02127838,-121.47879028,0.356811520000065
-85.00540924,-121.48594666,0.357177730000103
-85.00856018,-121.48397064,0.357299799999964
-85.00092316,-121.48403168,0.357299799999964
-85.00501251,-121.49588776,0.357299799999964
-85.00315094,-121.48145294,0.357788089999985
-85.0014267,-121.48734283,0.357788089999985
-85.00292969,-121.48445129,0.358276370000112
-85.00431824,-121.48908234,0.358398439999974
-85.0045929,-121.49536896,0.358520510000062
-85.00357056,-121.47949219,0.358642580000151
-85.01367188,-121.48156738,0.358764650000012
-85.01560211,-121.4834671,0.3588867200001
-85.01030731,-121.48506927,0.35913086000005
-85.0005188,-121.47236633,0.359375
-85.00343323,-121.48175049,0.35961913999995
-85.00675201,-121.47280884,0.359863280000127
-85.00066376,-121.47560883,0.359985349999988
-85.00486755,-121.49240875,0.360107420000077
-85.0058136,-121.47075653,0.360351560000026
-85.00150299,-121.48436737,0.360595699999976
-85.00248718,-121.49423981,0.360839839999926
-85.00074768,-121.47479248,0.360961910000015
-85.00028229,-121.49382019,0.361206049999964
-85.00222778,-121.48670197,0.361206049999964
-85.02867889,-121.48754883,0.361450190000141
-85.01925659,-121.48644257,0.361572260000003
-85.00174713,-121.48491669,0.362060550000024
-85.01673889,-121.47927094,0.362182620000112
-85.00733185,-121.47580719,0.362548830000151
-85.00810242,-121.47312164,0.362670900000012
-85.00080872,-121.474823,0.3627929700001
-85.00385284,-121.49062347,0.363159180000139
-85.0246582,-121.48423004,0.36328125
-85.00135803,-121.48416138,0.363647460000038
-85.01325989,-121.48223114,0.363769530000127
-85.01052094,-121.48381805,0.363769530000127
-85.0043335,-121.49443054,0.363769530000127
-85.00041199,-121.47396088,0.364379880000115
-85.01776123,-121.48303986,0.364868160000015
-85.00479889,-121.49196625,0.364868160000015
-85.00163269,-121.48445129,0.365112299999964
-85.00353241,-121.49564362,0.365600589999985
-85.02174377,-121.48626709,0.365844729999935
-85.02419281,-121.48574829,0.366088870000112
-85.01519775,-121.48429108,0.366088870000112
-85.01322174,-121.48213959,0.366210939999974
-85.00390625,-121.48790741,0.366210939999974
-85.01010132,-121.48558044,0.366577150000012
-85.00505829,-121.49252319,0.366577150000012
-85.02306366,-121.4815979,0.3671875
-85.0039978,-121.49671173,0.367309570000089
-85.01573944,-121.48206329,0.368041989999938
-85.00372314,-121.48792267,0.368164060000026
-85.00444794,-121.49150085,0.368652339999926
-85.00012207,-121.47962189,0.368652339999926
-85.02654266,-121.48490143,0.368774410000015
-85.0100174,-121.48526001,0.368896480000103
-85.00356293,-121.49343872,0.368896480000103
-85.00914764,-121.48725128,0.369995120000112
-85.02182007,-121.48557281,0.370239260000062
-85.00318909,-121.49543762,0.370361330000151
-85.00279236,-121.49741364,0.370361330000151
-85.02455139,-121.48397064,0.370483400000012
-85.00093842,-121.48599243,0.37084961000005
-85.00453186,-121.491539,0.37133788999995
-85.01590729,-121.48058319,0.372314449999976
-85.00720215,-121.48500824,0.372436520000065
-85.00538635,-121.47158813,0.372802730000103
-85.01168823,-121.48731232,0.372924799999964
-85.00720978,-121.48779297,0.373046870000053
-85.00202942,-121.47496796,0.373168940000141
-85.02314758,-121.47981262,0.373291010000003
-85.02416992,-121.48471069,0.373291010000003
-85.00460815,-121.49459076,0.373291010000003
-85.00282288,-121.48867798,0.373535160000074
-85.02651978,-121.48497009,0.373779300000024
-85.00219727,-121.49665833,0.373901370000112
-85.02819824,-121.4881897,0.374023439999974
-85.00595093,-121.49369812,0.374023439999974
-85.00502014,-121.48961639,0.374145510000062
-85.00649261,-121.47566986,0.375
-85.01669312,-121.48565674,0.375488280000127
-85.00440216,-121.48858643,0.375732420000077
-85.00005341,-121.49301147,0.375976560000026
-85.01499939,-121.48368835,0.376098630000115
-85.02272034,-121.48155975,0.376708980000103
-85.00148773,-121.48135376,0.376953120000053
-85.0025177,-121.49398041,0.377197260000003
-85.00444794,-121.48861694,0.377441410000074
-85.02443695,-121.48371124,0.377807620000112
-85.00286102,-121.48348236,0.378051760000062
-85.00332642,-121.47158813,0.378295900000012
-85.01908875,-121.48504639,0.3784179700001
-85.00801086,-121.49194336,0.378540039999962
-85.00363922,-121.49308014,0.37866211000005
-85.00772095,-121.47280884,0.37866211000005
-85.00234222,-121.49373627,0.37890625
-85.02600861,-121.48639679,0.37915038999995
-85.00701141,-121.49510956,0.379272460000038
-85.00089264,-121.47733307,0.379760739999938
-85.00827789,-121.49195862,0.379760739999938
-85.00946045,-121.49607086,0.379882810000026
-85.00440216,-121.49668121,0.380004880000115
-85.02194977,-121.48413086,0.380249020000065
-85.00837708,-121.49723816,0.380371089999926
-85.00649261,-121.47857666,0.381103510000003
-85.01938629,-121.48412323,0.381225589999985
-85.00115967,-121.47763062,0.381225589999985
-85.02626038,-121.48523712,0.381347660000074
-85.02259827,-121.48114014,0.381347660000074
-85.00454712,-121.47357941,0.381713870000112
-85.02461243,-121.48223877,0.381958010000062
-85.01122284,-121.48632813,0.3823242200001
-85.00689697,-121.49465179,0.38256836000005
-85.00576019,-121.49632263,0.38256836000005
-85.00025177,-121.49313354,0.382690430000139
-85.00119781,-121.4779129,0.383178710000038
-85.00829315,-121.48150635,0.383178710000038
-85.00637817,-121.48558807,0.383422849999988
-85.02819824,-121.48729706,0.383666989999938
-85.00073242,-121.49694061,0.383666989999938
-85.0071106,-121.49243164,0.383789060000026
-85.01909637,-121.48406982,0.383911130000115
-85.00572205,-121.48780823,0.383911130000115
-85.00775909,-121.4717865,0.384399410000015
-85.00250244,-121.47084045,0.384643549999964
-85.02934265,-121.49162292,0.384887690000141
-85.0062027,-121.48535156,0.385131839999985
-85.00643158,-121.48887634,0.385131839999985
-85.02845001,-121.48613739,0.385864260000062
-85.00337219,-121.48664856,0.385986330000151
-85.01077271,-121.47437286,0.385986330000151
-85.00946808,-121.48573303,0.386108400000012
-85.00739288,-121.49298859,0.3862304700001
-85.00543976,-121.49559021,0.3862304700001
-85.00847626,-121.49207306,0.38647461000005
-85.00414276,-121.49624634,0.386596680000139
-85.00727844,-121.48161316,0.386596680000139
-85.00348663,-121.48866272,0.38671875
-85.00422668,-121.48246765,0.387084960000038
-85.00569153,-121.47299194,0.387207030000127
-85.00591278,-121.49314117,0.387329099999988
-85.00785065,-121.49104309,0.388061520000065
-85.00627136,-121.48565674,0.388183589999926
-85.00679016,-121.49196625,0.388305660000015
-85.00460052,-121.49430084,0.388305660000015
-85.00312042,-121.49720001,0.388305660000015
-85.03051758,-121.48638153,0.388427730000103
-85.01296997,-121.4805603,0.388427730000103
-85.00285339,-121.49417114,0.388427730000103
-85.00283813,-121.49204254,0.388793940000141
-85.00536346,-121.49788666,0.389526370000112
-85.00662994,-121.49147797,0.3901367200001
-85.02867126,-121.48490143,0.39038086000005
-85.0149231,-121.48264313,0.39038086000005
-85.00023651,-121.49624634,0.39038086000005
-85.00301361,-121.4801712,0.390625
-85.00628662,-121.49923706,0.390747070000089
-85.02629089,-121.48332214,0.390991210000038
-85.00727844,-121.48677826,0.391113280000127
-85.0039978,-121.49028778,0.391479489999938
-85.00405121,-121.49305725,0.391845699999976
-85.01701355,-121.48291016,0.392089839999926
-85.00440216,-121.48557281,0.392211910000015
-85.00511932,-121.4879837,0.392211910000015
-85.00585175,-121.49269867,0.392333980000103
-85.03108215,-121.48430634,0.392578120000053
-85.00521851,-121.49767303,0.392578120000053
-85.00357056,-121.486763,0.392700190000141
-85.02863312,-121.48480988,0.392822260000003
-85.01487732,-121.4825592,0.392822260000003
-85.0009613,-121.47093201,0.392822260000003
-85.00238037,-121.47638702,0.392944339999985
-85.02387238,-121.48400879,0.393066410000074
-85.00498962,-121.49440002,0.393066410000074
-85.02601624,-121.48457336,0.393310550000024
-85.01038361,-121.48342133,0.393676760000062
-85.00354767,-121.48101044,0.393798830000151
-85.00655365,-121.49404144,0.3940429700001
-85.00521088,-121.49519348,0.39428711000005
-85.00337982,-121.48651886,0.39428711000005
-85.03288269,-121.48565674,0.394409180000139
-85.03099823,-121.48400116,0.394653320000089
-85.00245667,-121.48243713,0.394653320000089
-85.02153778,-121.48390961,0.39477538999995
-85.00260925,-121.49349213,0.394897460000038
-85.00354767,-121.49758148,0.395019530000127
-85.01213837,-121.47644806,0.395019530000127
-85.0282135,-121.48532104,0.395141599999988
-85.02339935,-121.4855423,0.395507810000026
-85.00064087,-121.47077179,0.395629880000115
-85.00572205,-121.49249268,0.395629880000115
-85.00093079,-121.46807098,0.395751949999976
-85.01238251,-121.48166656,0.395996089999926
-85.00485992,-121.49720001,0.395996089999926
-85.00121307,-121.48312378,0.396606440000141
-85.03289032,-121.48580933,0.396972660000074
-85.00219727,-121.46894836,0.396972660000074
-85.00022888,-121.49584198,0.396972660000074
-85.00112915,-121.47158813,0.397094729999935
-85.00060272,-121.47187805,0.397583010000062
-85.02590179,-121.48416138,0.398071289999962
-85.00380707,-121.49539185,0.398071289999962
-85.01225281,-121.48236847,0.398559570000089
-85.00073242,-121.49340057,0.39868163999995
-85.01042938,-121.47692871,0.398803710000038
-85.0044632,-121.49067688,0.398925780000127
-85.00110626,-121.47109985,0.399047849999988
-85.00241852,-121.48475647,0.399047849999988
-85.00650024,-121.49662018,0.399047849999988
-85.00604248,-121.47518921,0.399047849999988
-85.02165985,-121.48345184,0.399414060000026
-85.01670074,-121.4829483,0.399414060000026
-85.00829315,-121.496521,0.399658199999976
-85.02391052,-121.48323059,0.399780270000065
-85.01976776,-121.48049927,0.399780270000065
-85.02189636,-121.49079895,0.399780270000065
-85.00424957,-121.48742676,0.400268549999964
-85.00839996,-121.48667145,0.400512690000141
-85.00414276,-121.4732132,0.400634760000003
-85.01384735,-121.48526764,0.400878910000074
-85.01193237,-121.48336792,0.400878910000074
-85.00435638,-121.49597931,0.401123050000024
-85.00932312,-121.48062897,0.401367189999974
-85.006073,-121.49034882,0.401611330000151
-85.00106049,-121.49346924,0.401733400000012
-85.00724792,-121.49471283,0.401977539999962
-85.00016785,-121.47596741,0.402221680000139
-85.02633667,-121.4925766,0.40234375
-85.02310181,-121.48558044,0.40258788999995
-85.00485992,-121.49653625,0.40258788999995
-85.0282135,-121.49423218,0.402709960000038
-85.00359344,-121.47580719,0.402709960000038
-85.01473236,-121.48220062,0.402832030000127
-85.00356293,-121.47129822,0.402832030000127
-85.01598358,-121.48577118,0.402954099999988
-85.00482941,-121.49404144,0.403076170000077
-85.00749969,-121.49524689,0.403198239999938
-85.02055359,-121.48684692,0.403320310000026
-85.00022125,-121.49217224,0.403564449999976
-85.02197266,-121.48143005,0.403686520000065
-85.00523376,-121.48905945,0.403686520000065
-85.00406647,-121.48471069,0.403808589999926
-85.00862122,-121.48654938,0.403808589999926
-85.0271225,-121.48903656,0.404052730000103
-85.00641632,-121.49642944,0.404052730000103
-85.03111267,-121.4910202,0.404174799999964
-85.01075745,-121.47913361,0.404418940000141
-85.01634216,-121.48384094,0.404663089999985
-85.00245667,-121.49286652,0.404663089999985
-85.0029068,-121.49667358,0.404663089999985
-85.02378082,-121.48280334,0.404785160000074
-85.0033493,-121.46948242,0.404785160000074
-85.0057373,-121.48961639,0.405151370000112
-85.0147934,-121.48133087,0.405273439999974
-85.00480652,-121.4855423,0.405517580000151
-85.00357819,-121.46970367,0.40600586000005
-85.008461,-121.49360657,0.40600586000005
-85.0072937,-121.47081757,0.406127930000139
-85.01828003,-121.48464966,0.40625
-85.00752258,-121.48977661,0.406372070000089
-85.02751923,-121.48732758,0.40649413999995
-85.00031281,-121.49549103,0.406738280000127
-85.00385284,-121.47312927,0.406738280000127
-85.00634003,-121.49873352,0.407226560000026
-85.00752258,-121.47103119,0.407348630000115
-85.00562286,-121.49516296,0.407348630000115
-85.0087204,-121.49414825,0.407470699999976
-85.02339935,-121.48352814,0.407714839999926
-85.01009369,-121.48092651,0.407714839999926
-85.00038147,-121.47570038,0.407836910000015
-85.02758026,-121.48648071,0.408203120000053
-85.00621033,-121.48795319,0.408203120000053
-85.00811768,-121.49887848,0.408203120000053
-85.00260162,-121.49568939,0.408447260000003
-85.02593231,-121.48348999,0.408569339999985
-85.0094223,-121.49523163,0.408691410000074
-85.00286865,-121.47966766,0.408935550000024
-85.02929688,-121.48864746,0.409057620000112
-85.00063324,-121.4747467,0.409179689999974
-85.00550079,-121.49743652,0.409301760000062
-85.00792694,-121.49537659,0.409545900000012
-85.01422882,-121.48252869,0.410034180000139
-85.00449371,-121.48509216,0.410278320000089
-85.00382996,-121.4807663,0.41040038999995
-85.00576782,-121.49772644,0.410522460000038
-85.01811981,-121.4852829,0.410766599999988
-85.00808716,-121.49063873,0.410766599999988
-85.00858307,-121.49394226,0.410766599999988
-85.02710724,-121.48799896,0.411010739999938
-85.02282715,-121.48581696,0.411132810000026
-85.003479,-121.47103119,0.411132810000026
-85.01171875,-121.48274994,0.411254880000115
-85.02468872,-121.48745728,0.411621089999926
-85.01074982,-121.47025299,0.411621089999926
-85.02887726,-121.49040985,0.411865230000103
-85.00298309,-121.47947693,0.412109370000053
-85.01579285,-121.48519135,0.412231440000141
-85.02015686,-121.48657227,0.412597660000074
-85.00514221,-121.4969635,0.412597660000074
-85.02986908,-121.48660278,0.412719729999935
-85.00772095,-121.48940277,0.412719729999935
-85.00708008,-121.49160004,0.412841800000024
-85.02755737,-121.48655701,0.412963870000112
-85.00504303,-121.485672,0.412963870000112
-85.00299835,-121.47975159,0.413452150000012
-85.02509308,-121.48576355,0.41381836000005
-85.01661682,-121.48188782,0.41381836000005
-85.00321198,-121.49983978,0.4140625
-85.01934814,-121.48029327,0.41430663999995
-85.00778961,-121.49268341,0.41430663999995
-85.02377319,-121.48191833,0.414428710000038
-85.00685883,-121.48858643,0.414428710000038
-85.00763702,-121.49466705,0.414550780000127
-85.01075745,-121.48562622,0.414672849999988
-85.00195313,-121.47792816,0.415161130000115
-85.00984955,-121.4956131,0.415161130000115
-85.00698853,-121.46925354,0.415283199999976
-85.00698853,-121.49688721,0.415283199999976
-85.0033493,-121.47364044,0.415405270000065
-85.00434875,-121.49542999,0.415405270000065
-85.02890778,-121.48947906,0.416015620000053
-85.02490997,-121.48622131,0.416137690000141
-85.00444794,-121.48165894,0.416381839999985
-85.01087189,-121.4797287,0.416625979999935
-85.00611115,-121.49584198,0.416748050000024
-85.02326202,-121.48320007,0.416992189999974
-85.02072144,-121.48449707,0.416992189999974
-85.00782013,-121.48695374,0.417114260000062
-85.00042725,-121.49816132,0.417358400000012
-85.0078125,-121.47416687,0.4174804700001
-85.00263977,-121.49884033,0.417602539999962
-85.0074234,-121.48918915,0.417846680000139
-85.00752258,-121.49446106,0.41796875
-85.02921295,-121.48856354,0.418334960000038
-85.00740051,-121.47091675,0.418334960000038
-85.01078796,-121.49447632,0.418457030000127
-85.00711823,-121.49971008,0.418457030000127
-85.00618744,-121.49562073,0.418579099999988
-85.00900269,-121.48857117,0.418823239999938
-85.00537109,-121.49983215,0.418945310000026
-85.00050354,-121.49794006,0.418945310000026
-85.01109314,-121.47962952,0.419433589999926
-85.01148224,-121.49253845,0.419677730000103
-85.01532745,-121.48574829,0.420166010000003
-85.01412964,-121.48240662,0.420288089999985
-85.00656128,-121.48188019,0.420288089999985
-85.00646973,-121.49591827,0.420288089999985
-85.00974274,-121.49266815,0.420532229999935
-85.00476837,-121.49855042,0.420532229999935
-85.01776886,-121.48522186,0.420776370000112
-85.00733185,-121.49147797,0.420776370000112
-85.00183868,-121.49756622,0.420898439999974
-85.01109314,-121.49179077,0.421508789999962
-85.0149231,-121.47836304,0.42163086000005
-85.02333069,-121.48249817,0.421752930000139
-85.0059433,-121.48085022,0.421752930000139
-85.02078247,-121.48377991,0.421997070000089
-85.00919342,-121.49716949,0.42211913999995
-85.00389862,-121.49749756,0.422363280000127
-85.00166321,-121.49732971,0.422363280000127
-85.02532959,-121.48355865,0.423095699999976
-85.01831055,-121.48297119,0.423217770000065
-85.00695038,-121.46749115,0.423217770000065
-85.01364899,-121.4839325,0.423339839999926
-85.00868225,-121.4881134,0.423339839999926
-85.00328064,-121.4994812,0.423583980000103
-85.00533295,-121.47982788,0.423828120000053
-85.00807953,-121.49284363,0.424072260000003
-85.00350952,-121.49674988,0.424072260000003
-85.00370789,-121.4749527,0.424194339999985
-85.00836945,-121.49562836,0.424194339999985
-85.00019836,-121.49748993,0.424194339999985
-85.00826263,-121.48432922,0.424438479999935
-85.02799988,-121.4829483,0.424560550000024
-85.01030731,-121.49353027,0.424682620000112
-85.00715637,-121.48576355,0.424926760000062
-85.00596619,-121.49771118,0.425048830000151
-85.01860809,-121.48206329,0.425170900000012
-85.02590942,-121.48155975,0.42553711000005
-85.00895691,-121.4854126,0.425659180000139
-85.00045013,-121.49803162,0.425659180000139
-85.00395966,-121.49179077,0.425903320000089
-85.00199127,-121.49765778,0.425903320000089
-85.03063202,-121.49076843,0.426391599999988
-85.00170898,-121.47398376,0.426391599999988
-85.0092392,-121.4887085,0.426513670000077
-85.00157166,-121.47129822,0.426635739999938
-85.00392914,-121.48603058,0.426757810000026
-85.02041626,-121.48468018,0.427001949999976
-85.02819824,-121.48281097,0.427124020000065
-85.00361633,-121.49980927,0.427246089999926
-85.00444031,-121.49259949,0.427368160000015
-85.00218201,-121.48616028,0.427368160000015
-85.0029068,-121.47367859,0.427490230000103
-85.00788879,-121.48384857,0.427490230000103
-85.02300262,-121.48361206,0.427734370000053
-85.01780701,-121.48442841,0.427734370000053
-85.00614929,-121.48697662,0.427978510000003
-85.02915192,-121.48741913,0.428222660000074
-85.00430298,-121.49487305,0.428588870000112
-85.00309753,-121.48448944,0.428588870000112
-85.00727081,-121.48581696,0.428710939999974
-85.00369263,-121.47344208,0.42944336000005
-85.00797272,-121.48362732,0.42944336000005
-85.03157806,-121.48686981,0.429565430000139
-85.00187683,-121.47161865,0.429565430000139
-85.00144196,-121.4934082,0.4296875
-85.01824951,-121.48297119,0.430175780000127
-85.00605011,-121.46972656,0.430541989999938
-85.00576782,-121.47071838,0.430664060000026
-85.00570679,-121.47219086,0.431396480000103
-85.02823639,-121.49054718,0.431640620000053
-85.01577759,-121.48342133,0.431640620000053
-85.00038147,-121.4692688,0.431640620000053
-85.0295105,-121.48564148,0.432739260000062
-85.0015564,-121.47389984,0.4331054700001
-85.00287628,-121.47267151,0.433471680000139
-85.0089798,-121.47042847,0.434936520000065
-85.00010681,-121.48136139,0.436401370000112
