"X","Y","Z"
-84.85337067,-121.31050873,0.371215820000089
-84.8609314,-121.31243134,0.371215820000089
-84.94223022,-121.34765625,0.371337890000177
-84.87577057,-121.3139801,0.371337890000177
-84.87731171,-121.33605957,0.371337890000177
-84.85659027,-121.31936646,0.371337890000177
-84.93074799,-121.3467865,0.371459960000038
-84.86747742,-121.31495667,0.371459960000038
-84.85487366,-121.31806183,0.371459960000038
-84.8747406,-121.31468964,0.371582030000127
-84.86814117,-121.31902313,0.371704100000215
-84.86519623,-121.31587982,0.371704100000215
-84.85723877,-121.32238007,0.371704100000215
-84.87571716,-121.32357025,0.371826170000077
-84.8585434,-121.31265259,0.372070320000148
-84.87200165,-121.33760834,0.372070320000148
-84.85806274,-121.32492065,0.372070320000148
-84.8741684,-121.31690979,0.372192390000009
-84.86167145,-121.31507111,0.372192390000009
-84.86791992,-121.31645203,0.372314460000098
-84.85510254,-121.30152893,0.372314460000098
-84.87142944,-121.31523895,0.372436530000186
-84.86582184,-121.3189621,0.372436530000186
-84.88265991,-121.31716919,0.372436530000186
-84.90991974,-121.33281708,0.372558600000048
-84.87400055,-121.31414032,0.372558600000048
-84.85987854,-121.32543945,0.372558600000048
-84.85706329,-121.31183624,0.372558600000048
-84.85785675,-121.32766724,0.372558600000048
-84.900383,-121.32624054,0.372680670000136
-84.86959076,-121.31899261,0.372680670000136
-84.8548584,-121.31802368,0.372680670000136
-84.8772583,-121.31372833,0.372802740000225
-84.90821075,-121.33149719,0.372924810000086
-84.8553772,-121.30951691,0.372924810000086
-84.87779236,-121.33625793,0.373046880000174
-84.86775208,-121.32943726,0.373046880000174
-84.86180115,-121.31920624,0.373046880000174
-84.85713959,-121.31945038,0.373046880000174
-84.86530304,-121.32785034,0.373168950000036
-84.89122009,-121.32292938,0.373291020000124
-84.86566925,-121.31633759,0.373291020000124
-84.87043762,-121.33126068,0.373291020000124
-84.85726929,-121.3208313,0.373291020000124
-84.87745667,-121.31497192,0.373413090000213
-84.8762207,-121.31497192,0.373535160000074
-84.88088226,-121.3411026,0.373535160000074
-84.87667847,-121.33946228,0.373657230000163
-84.85323334,-121.32958221,0.373657230000163
-84.86418915,-121.3152771,0.373779300000024
-84.85681152,-121.3115387,0.373779300000024
-84.85540009,-121.32749939,0.373779300000024
-84.90428162,-121.32884216,0.373901370000112
-84.86199188,-121.31369781,0.373901370000112
-84.89070892,-121.32289124,0.374023440000201
-84.8745575,-121.3196106,0.374023440000201
-84.86618805,-121.31533813,0.374023440000201
-84.88876343,-121.32131958,0.374145510000062
-84.85614777,-121.32427216,0.374145510000062
-84.87316895,-121.33957672,0.374145510000062
-84.94564056,-121.34967804,0.374267580000151
-84.92664337,-121.34130859,0.374267580000151
-84.854599,-121.31796265,0.374267580000151
-84.89585876,-121.32604218,0.374389650000012
-84.87471008,-121.31484985,0.374389650000012
-84.86422729,-121.31401062,0.374389650000012
-84.87786102,-121.31794739,0.3745117200001
-84.8748703,-121.31735229,0.374633790000189
-84.87190247,-121.3164978,0.374633790000189
-84.87206268,-121.31150055,0.374633790000189
-84.87552643,-121.32401276,0.37475586000005
-84.86112213,-121.32491302,0.37475586000005
-84.88751984,-121.34427643,0.374877930000139
-84.87433624,-121.31832123,0.375
-84.86943817,-121.30715179,0.375
-84.86933136,-121.31506348,0.375122070000089
-84.87841797,-121.31569672,0.375122070000089
-84.86940002,-121.31616211,0.375122070000089
-84.85282898,-121.32881927,0.375122070000089
-84.87796783,-121.31607056,0.375244140000177
-84.86792755,-121.33087158,0.375244140000177
-84.87037659,-121.30892181,0.375366210000038
-84.86279297,-121.32720184,0.375366210000038
-84.85414124,-121.31614685,0.375366210000038
-84.93418121,-121.34751892,0.375488280000127
-84.85858917,-121.31004333,0.375488280000127
-84.85462189,-121.30890656,0.375488280000127
-84.85410309,-121.31739807,0.375488280000127
-84.88555908,-121.31916809,0.375610350000215
-84.87596893,-121.32186127,0.375610350000215
-84.88021088,-121.33776093,0.375610350000215
-84.87870789,-121.33795929,0.375610350000215
-84.87033081,-121.31865692,0.375732420000077
-84.89858246,-121.32659149,0.375732420000077
-84.88359833,-121.34136963,0.375732420000077
-84.87330627,-121.31877136,0.375732420000077
-84.91947937,-121.33776855,0.375854500000059
-84.87184143,-121.33348083,0.375854500000059
-84.8740387,-121.31152344,0.375976570000148
-84.92539978,-121.34044647,0.376220710000098
-84.87229156,-121.3192215,0.376220710000098
-84.85508728,-121.32926941,0.376342780000186
-84.88237,-121.31703186,0.376464850000048
-84.85913849,-121.3237915,0.376464850000048
-84.88049316,-121.32096863,0.376586920000136
-84.86183929,-121.32537079,0.376586920000136
-84.87886047,-121.3130188,0.376708990000225
-84.86592102,-121.31498718,0.376708990000225
-84.86113739,-121.32359314,0.376708990000225
-84.9295578,-121.34307098,0.376831060000086
-84.8711319,-121.31616211,0.376831060000086
-84.86081696,-121.32582855,0.376831060000086
-84.87406921,-121.31825256,0.376953130000174
-84.87978363,-121.31942749,0.377075200000036
-84.87626648,-121.34333801,0.377075200000036
-84.8650589,-121.32404327,0.377075200000036
-84.89685059,-121.32549286,0.377197270000124
-84.87158203,-121.31765747,0.377197270000124
-84.86354065,-121.3241806,0.377197270000124
-84.85014343,-121.29953003,0.377319340000213
-84.86564636,-121.31955719,0.377441410000074
-84.86444092,-121.31417084,0.377441410000074
-84.86473083,-121.32843781,0.377441410000074
-84.88027191,-121.34295654,0.377563480000163
-84.86965942,-121.31507874,0.377563480000163
-84.8602829,-121.32678986,0.377563480000163
-84.85826874,-121.32698059,0.377563480000163
-84.87966156,-121.33867645,0.377685550000024
-84.87374115,-121.31246185,0.377685550000024
-84.86160278,-121.31604767,0.377807620000112
-84.86591339,-121.33071899,0.377807620000112
-84.8571167,-121.3264389,0.377807620000112
-84.85247803,-121.33435059,0.377807620000112
-84.85830688,-121.30995178,0.378051760000062
-84.86621857,-121.3223877,0.378051760000062
-84.86875916,-121.31607819,0.378173830000151
-84.880867,-121.31617737,0.378173830000151
-84.85211182,-121.31600189,0.378173830000151
-84.87043762,-121.31803131,0.378295900000012
-84.87875366,-121.31986237,0.378295900000012
-84.85092163,-121.30619049,0.378295900000012
-84.86556244,-121.32460022,0.378295900000012
-84.85469055,-121.32875824,0.378295900000012
-84.90593719,-121.32998657,0.3784179700001
-84.87679291,-121.31854248,0.3784179700001
-84.87307739,-121.30966187,0.3784179700001
-84.87133026,-121.31735992,0.3784179700001
-84.90888977,-121.33184052,0.378540040000189
-84.87947845,-121.34390259,0.378540040000189
-84.86186218,-121.32405853,0.378540040000189
-84.87792969,-121.32463837,0.37866211000005
-84.87425995,-121.31169128,0.37866211000005
-84.87030029,-121.33383942,0.37866211000005
-84.8524704,-121.33159637,0.37866211000005
-84.85574341,-121.30101013,0.37866211000005
-84.87590027,-121.31484222,0.378784180000139
-84.86485291,-121.31329346,0.378784180000139
-84.88793182,-121.34567261,0.378784180000139
-84.85823059,-121.3201828,0.378784180000139
-84.87789154,-121.31530762,0.37890625
-84.88352966,-121.31899261,0.379028320000089
-84.88127899,-121.31890869,0.379028320000089
-84.85829926,-121.30991364,0.379028320000089
-84.8557663,-121.31858826,0.379028320000089
-84.93956757,-121.34983063,0.379150390000177
-84.88037872,-121.33914948,0.379150390000177
-84.88037109,-121.34716034,0.379150390000177
-84.86495209,-121.31313324,0.379150390000177
-84.86299896,-121.32733154,0.379150390000177
-84.90344238,-121.32987976,0.379394530000127
-84.87008667,-121.31654358,0.379394530000127
-84.86219788,-121.31407166,0.379516600000215
-84.88845062,-121.3446579,0.379516600000215
-84.85881805,-121.30915833,0.379516600000215
-84.86756897,-121.32176971,0.379516600000215
-84.9302597,-121.34349823,0.379638670000077
-84.85414124,-121.30700684,0.379638670000077
-84.85119629,-121.33226776,0.379638670000077
-84.87494659,-121.31317902,0.379760750000059
-84.87628937,-121.31822968,0.379760750000059
-84.88567352,-121.34555817,0.379760750000059
-84.86160278,-121.32376099,0.379760750000059
-84.86026001,-121.32546234,0.379760750000059
-84.87432861,-121.31690979,0.379882820000148
-84.86151123,-121.32650757,0.379882820000148
-84.89951324,-121.32723236,0.380004890000009
-84.87317657,-121.31360626,0.380004890000009
-84.89730835,-121.32565308,0.380126960000098
-84.87592316,-121.33747864,0.380126960000098
-84.8639679,-121.31230927,0.380126960000098
-84.86244965,-121.32827759,0.380126960000098
-84.85475159,-121.32878876,0.380126960000098
-84.87635803,-121.31571198,0.380371100000048
-84.87387085,-121.31537628,0.380371100000048
-84.85991669,-121.32919312,0.380371100000048
-84.85803223,-121.31903076,0.380371100000048
-84.85012817,-121.33345032,0.380371100000048
-84.85588837,-121.31009674,0.380371100000048
-84.87064362,-121.3166275,0.380493170000136
-84.87473297,-121.31189728,0.380493170000136
-84.87776184,-121.32511139,0.380615240000225
-84.88746643,-121.3203125,0.380615240000225
-84.88169861,-121.32063293,0.380615240000225
-84.87255859,-121.31707764,0.380615240000225
-84.86171722,-121.32774353,0.380615240000225
-84.88500977,-121.32437134,0.380737310000086
-84.87975311,-121.31906128,0.380737310000086
-84.91330719,-121.33341217,0.380859380000174
-84.85334015,-121.30793762,0.380859380000174
-84.8562088,-121.3200531,0.380859380000174
-84.85124969,-121.33203888,0.380859380000174
-84.88382721,-121.31668091,0.380981450000036
-84.8848877,-121.32272339,0.380981450000036
-84.88961792,-121.34664917,0.380981450000036
-84.93074036,-121.34371948,0.381103520000124
-84.86518097,-121.32084656,0.381103520000124
-84.93740082,-121.34667969,0.381225590000213
-84.9093399,-121.33226013,0.381225590000213
-84.87779236,-121.31773376,0.381225590000213
-84.86618805,-121.32836914,0.381225590000213
-84.8547287,-121.31897736,0.381225590000213
-84.87181854,-121.31652832,0.381347660000074
-84.85965729,-121.32914734,0.381347660000074
-84.86813354,-121.31813049,0.381469730000163
-84.86231995,-121.32422638,0.381469730000163
-84.92774963,-121.34310913,0.381591800000024
-84.86895752,-121.32089996,0.381591800000024
-84.87721252,-121.31218719,0.381713870000112
-84.88561249,-121.34674835,0.381713870000112
-84.86875153,-121.33419037,0.381713870000112
-84.92040253,-121.33836365,0.381835940000201
-84.88124847,-121.31881714,0.381835940000201
-84.88374329,-121.34268188,0.381835940000201
-84.86203003,-121.32546234,0.381835940000201
-84.86528778,-121.33281708,0.381835940000201
-84.85234833,-121.30712891,0.381835940000201
-84.85523987,-121.32961273,0.381835940000201
-84.88466644,-121.32118225,0.381958010000062
-84.87226868,-121.31803131,0.381958010000062
-84.86084747,-121.32315826,0.381958010000062
-84.86164856,-121.32920074,0.381958010000062
-84.85968781,-121.32788086,0.382080080000151
-84.94106293,-121.34928131,0.382202150000012
-84.85881805,-121.32888794,0.382202150000012
-84.85237122,-121.32788849,0.382202150000012
-84.85101318,-121.32927704,0.382202150000012
-84.85684967,-121.30708313,0.382202150000012
-84.87470245,-121.31903076,0.3823242200001
-84.86123657,-121.31065369,0.3823242200001
-84.85394287,-121.32792664,0.3823242200001
-84.87278748,-121.3234787,0.3823242200001
-84.85700989,-121.32324219,0.3823242200001
-84.85635376,-121.32845306,0.3823242200001
-84.9238205,-121.34044647,0.382446290000189
-84.86612701,-121.3140564,0.382446290000189
-84.85704041,-121.30901337,0.382446290000189
-84.8530426,-121.30888367,0.382446290000189
-84.87802124,-121.32395935,0.38256836000005
-84.91892242,-121.3372879,0.38256836000005
-84.8842926,-121.34867859,0.38256836000005
-84.88764191,-121.34552765,0.382690430000139
-84.85961151,-121.33036041,0.382690430000139
-84.88881683,-121.34757233,0.3828125
-84.86206055,-121.3319397,0.3828125
-84.85743713,-121.32752991,0.3828125
-84.85971069,-121.31848907,0.3828125
-84.86004639,-121.30859375,0.382934570000089
-84.85810852,-121.31170654,0.383056640000177
-84.86431885,-121.32319641,0.383056640000177
-84.861763,-121.32540894,0.383056640000177
-84.85002136,-121.30925751,0.383178710000038
-84.87821198,-121.31942749,0.383300780000127
-84.89131165,-121.3478775,0.383300780000127
-84.88555145,-121.34793854,0.383300780000127
-84.85295105,-121.31935883,0.383300780000127
-84.85484314,-121.32884979,0.383300780000127
-84.87303162,-121.31725311,0.383422850000215
-84.89163971,-121.32186127,0.383544920000077
-84.87439728,-121.32588196,0.383544920000077
-84.87799835,-121.31790161,0.383667000000059
-84.86714935,-121.31330109,0.383667000000059
-84.86726379,-121.33307648,0.383667000000059
-84.85861969,-121.32953644,0.383667000000059
-84.85629272,-121.30844116,0.383667000000059
-84.87557983,-121.315979,0.383789070000148
-84.88555908,-121.31639862,0.383789070000148
-84.86235046,-121.31640625,0.383789070000148
-84.85907745,-121.3261795,0.383789070000148
-84.87828064,-121.31690979,0.383911140000009
-84.85881805,-121.32328033,0.383911140000009
-84.85131073,-121.32933044,0.383911140000009
-84.86171722,-121.31085968,0.384033210000098
-84.89701843,-121.32550812,0.384155280000186
-84.8861618,-121.34417725,0.384155280000186
-84.85662079,-121.32170105,0.384155280000186
-84.85704803,-121.32025909,0.384155280000186
-84.91767883,-121.33644104,0.384277350000048
-84.85151672,-121.30876923,0.384399420000136
-84.85780334,-121.32373047,0.384399420000136
-84.87856293,-121.32171631,0.384521490000225
-84.86952209,-121.31260681,0.384521490000225
-84.88101959,-121.31723022,0.384521490000225
-84.86782837,-121.33055878,0.384521490000225
-84.85948944,-121.30628204,0.384521490000225
-84.93138885,-121.34562683,0.384643560000086
-84.88996124,-121.31925964,0.384643560000086
-84.87905884,-121.31591034,0.384643560000086
-84.87129974,-121.31616211,0.384643560000086
-84.8657074,-121.31096649,0.384643560000086
-84.85044861,-121.3310318,0.384643560000086
-84.85865021,-121.30948639,0.384765630000174
-84.88123322,-121.31246948,0.384765630000174
-84.86730194,-121.33154297,0.384765630000174
-84.86305237,-121.33139801,0.384765630000174
-84.8599472,-121.32501221,0.384765630000174
-84.90563965,-121.32952118,0.384887700000036
-84.8629837,-121.32588959,0.384887700000036
-84.85632324,-121.32292175,0.384887700000036
-84.8653183,-121.32067108,0.384887700000036
-84.86490631,-121.32121277,0.385009770000124
-84.86139679,-121.31658173,0.385131840000213
-84.85485077,-121.3218689,0.385131840000213
-84.87918091,-121.32718658,0.385253910000074
-84.85890198,-121.3168335,0.385253910000074
-84.85974121,-121.3330307,0.385253910000074
-84.90411377,-121.33020782,0.385375980000163
-84.85756683,-121.33045197,0.385375980000163
-84.86727142,-121.31832123,0.385375980000163
-84.85315704,-121.32875061,0.385375980000163
-84.88652039,-121.31687164,0.385498050000024
-84.86760712,-121.31375885,0.385498050000024
-84.85974121,-121.30950165,0.385498050000024
-84.85774231,-121.30943298,0.385498050000024
-84.85957336,-121.32700348,0.385498050000024
-84.90239716,-121.32888794,0.385620120000112
-84.88063812,-121.32093048,0.385620120000112
-84.87177277,-121.33216095,0.385620120000112
-84.88208008,-121.3375473,0.385620120000112
-84.87545013,-121.31876373,0.385742190000201
-84.87973022,-121.34142303,0.385742190000201
-84.86656189,-121.33097839,0.385742190000201
-84.8824234,-121.34324646,0.385864260000062
-84.86968994,-121.31105804,0.385864260000062
-84.8640976,-121.32939911,0.385986330000151
-84.91271973,-121.33447266,0.386108400000012
-84.87917328,-121.31987,0.386108400000012
-84.85227203,-121.30822754,0.386108400000012
-84.88327789,-121.3162384,0.3862304700001
-84.88347626,-121.31774902,0.3862304700001
-84.85520172,-121.31033325,0.3862304700001
-84.85140991,-121.31945801,0.3862304700001
-84.86353302,-121.32154846,0.3862304700001
-84.91075897,-121.33313751,0.386352540000189
-84.86392975,-121.31111145,0.386352540000189
-84.93238831,-121.34484863,0.38647461000005
-84.86254883,-121.33083344,0.38647461000005
-84.93875885,-121.34906006,0.386596680000139
-84.8963089,-121.32341003,0.386596680000139
-84.87306976,-121.31465149,0.386596680000139
-84.86625671,-121.3321991,0.386596680000139
-84.85482788,-121.32182312,0.386596680000139
-84.85694122,-121.32579803,0.386596680000139
-84.85494232,-121.3289032,0.386596680000139
-84.8658905,-121.31736755,0.38671875
-84.87499237,-121.31720734,0.38671875
-84.87731171,-121.31703949,0.386840820000089
-84.87229919,-121.31536865,0.386840820000089
-84.87110901,-121.31331635,0.386962890000177
-84.86486816,-121.3286438,0.386962890000177
-84.85601044,-121.30832672,0.386962890000177
-84.85449982,-121.30853271,0.386962890000177
-84.85418701,-121.31051636,0.386962890000177
-84.93164825,-121.34429932,0.387084960000038
-84.86245728,-121.31004333,0.387084960000038
-84.87877655,-121.31581879,0.387207030000127
-84.86074066,-121.30896759,0.387207030000127
-84.86588287,-121.33592224,0.387207030000127
-84.85021973,-121.31739044,0.387207030000127
-84.85041809,-121.31864929,0.387207030000127
-84.85163879,-121.32640076,0.387207030000127
-84.90090179,-121.32804108,0.387329100000215
-84.86013031,-121.31220245,0.387329100000215
-84.8707428,-121.33257294,0.387329100000215
-84.85849762,-121.30863953,0.387451170000077
-84.85926819,-121.33144379,0.387451170000077
-84.8529892,-121.30872345,0.387451170000077
-84.85894012,-121.32621765,0.387451170000077
-84.85582733,-121.3274765,0.387573250000059
-84.87242126,-121.31134033,0.387695320000148
-84.87036896,-121.31276703,0.387695320000148
-84.86860657,-121.31297302,0.387695320000148
-84.8609314,-121.31809998,0.387817390000009
-84.93826294,-121.34874725,0.387817390000009
-84.91931915,-121.33863068,0.387817390000009
-84.8829422,-121.31842804,0.387817390000009
-84.85890198,-121.31140137,0.387817390000009
-84.86624908,-121.33216095,0.387817390000009
-84.87113953,-121.31204224,0.387939460000098
-84.86354828,-121.33030701,0.387939460000098
-84.85726929,-121.30783844,0.387939460000098
-84.85099792,-121.30838776,0.387939460000098
-84.8635788,-121.32157898,0.387939460000098
-84.88330841,-121.32137299,0.388061530000186
-84.86248779,-121.33228302,0.388061530000186
-84.86782837,-121.32190704,0.388061530000186
-84.86049652,-121.31932831,0.388061530000186
-84.85720825,-121.32610321,0.388061530000186
-84.88141632,-121.31887054,0.388305670000136
-84.86090088,-121.31144714,0.388305670000136
-84.93139648,-121.3440094,0.388427740000225
-84.87651825,-121.31569672,0.388427740000225
-84.92919159,-121.34268188,0.388549810000086
-84.88571167,-121.31774902,0.388549810000086
-84.86096954,-121.30918884,0.388549810000086
-84.86006165,-121.32507324,0.388549810000086
-84.88407135,-121.34546661,0.388671880000174
-84.87072754,-121.33252716,0.388671880000174
-84.86591339,-121.33437347,0.388671880000174
-84.86035919,-121.32785797,0.388671880000174
-84.88037109,-121.32322693,0.388793950000036
-84.89089203,-121.31990051,0.388916020000124
-84.87214661,-121.31128693,0.388916020000124
-84.86688995,-121.31162262,0.388916020000124
-84.87036133,-121.31272888,0.388916020000124
-84.86100769,-121.32467651,0.389160160000074
-84.88047791,-121.31680298,0.389160160000074
-84.88185883,-121.34413147,0.389160160000074
-84.86386108,-121.31227112,0.389160160000074
-84.85423279,-121.30844879,0.389160160000074
-84.88419342,-121.31791687,0.389282230000163
-84.88092041,-121.318573,0.389282230000163
-84.86798859,-121.33190918,0.389282230000163
-84.85668182,-121.31002808,0.389282230000163
-84.87049866,-121.31630707,0.389404300000024
-84.8911972,-121.34918213,0.389404300000024
-84.85175323,-121.30786133,0.389404300000024
-84.8599472,-121.33009338,0.389404300000024
-84.86071777,-121.30889893,0.389526370000112
-84.86578369,-121.3303299,0.389526370000112
-84.87227631,-121.31873322,0.389770510000062
-84.88137054,-121.32006836,0.389770510000062
-84.87348175,-121.32205963,0.389892580000151
-84.87814331,-121.34272766,0.390014650000012
-84.85092163,-121.31781769,0.3901367200001
-84.8877182,-121.32450867,0.390258790000189
-84.86035156,-121.32537079,0.390258790000189
-84.85762024,-121.31284332,0.39038086000005
-84.86035156,-121.31912994,0.390625
-84.86443329,-121.33325958,0.390625
-84.85153198,-121.30631256,0.390625
-84.86019897,-121.33062744,0.390625
-84.85263062,-121.32803345,0.390625
-84.87580872,-121.32102966,0.390747070000089
-84.8884964,-121.32351685,0.390747070000089
-84.85845184,-121.30632782,0.390747070000089
-84.88572693,-121.32417297,0.390991210000038
-84.8975296,-121.32279968,0.391113280000127
-84.85424805,-121.32264709,0.391113280000127
-84.85331726,-121.32061768,0.391113280000127
-84.86961365,-121.31208038,0.391235350000215
-84.86885834,-121.33512878,0.391235350000215
-84.88980103,-121.32180023,0.391235350000215
-84.92324066,-121.33988953,0.391357420000077
-84.87397003,-121.31626892,0.391357420000077
-84.87896729,-121.31906891,0.391479500000059
-84.87081146,-121.31539917,0.391479500000059
-84.93283081,-121.34494781,0.391479500000059
-84.86673737,-121.33104706,0.391601570000148
-84.85413361,-121.31236267,0.391601570000148
-84.91883087,-121.33698273,0.391723640000009
-84.87481689,-121.31302643,0.391723640000009
-84.85791779,-121.32499695,0.391723640000009
-84.92151642,-121.33882141,0.391845710000098
-84.88314056,-121.31855774,0.391845710000098
-84.92714691,-121.34249878,0.392089850000048
-84.85305786,-121.32057953,0.392089850000048
-84.85510254,-121.32900238,0.392089850000048
-84.85767365,-121.31864929,0.392089850000048
-84.93058014,-121.34485626,0.392211920000136
-84.86354828,-121.31316376,0.392211920000136
-84.87757874,-121.34388733,0.392333990000225
-84.87075806,-121.31439209,0.392333990000225
-84.86313629,-121.31038666,0.392333990000225
-84.87329865,-121.32250977,0.392456060000086
-84.86836243,-121.33483124,0.392456060000086
-84.8642807,-121.32943726,0.392456060000086
-84.85933685,-121.32633209,0.392456060000086
-84.85269928,-121.32781219,0.392456060000086
-84.85520172,-121.31629181,0.392456060000086
-84.88916779,-121.3254776,0.392578130000174
-84.86649323,-121.33075714,0.392578130000174
-84.85800934,-121.32723236,0.392578130000174
-84.86962128,-121.33435822,0.392700200000036
-84.85684967,-121.31659698,0.392700200000036
-84.85920715,-121.31494141,0.392944340000213
-84.86026764,-121.31880951,0.392944340000213
-84.86406708,-121.31240082,0.392944340000213
-84.86255646,-121.32811737,0.392944340000213
-84.85497284,-121.32312012,0.392944340000213
-84.91142273,-121.33345032,0.393066410000074
-84.87140656,-121.3208313,0.393188480000163
-84.89720917,-121.32396698,0.393310550000024
-84.86260223,-121.31134033,0.393310550000024
-84.86035919,-121.31101227,0.393310550000024
-84.85198975,-121.30673981,0.393310550000024
-84.85305023,-121.32028961,0.393310550000024
-84.86305237,-121.31285095,0.393432620000112
-84.86090088,-121.32595825,0.393432620000112
-84.91777802,-121.33763885,0.393554690000201
-84.91999054,-121.33921051,0.393554690000201
-84.90411377,-121.32718658,0.393554690000201
-84.8531723,-121.33187866,0.393554690000201
-84.85958862,-121.32687378,0.393676760000062
-84.93476105,-121.34644318,0.393798830000151
-84.88594055,-121.34925079,0.393798830000151
-84.90068054,-121.32480621,0.393920900000012
-84.85315704,-121.32887268,0.393920900000012
-84.8518219,-121.3194809,0.3940429700001
-84.8776474,-121.31755066,0.394165040000189
-84.88863373,-121.3496933,0.394165040000189
-84.86898804,-121.31413269,0.394409180000139
-84.88658142,-121.31958771,0.394409180000139
-84.85299683,-121.32174683,0.394409180000139
-84.8841629,-121.34828186,0.39453125
-84.85765076,-121.30914307,0.39453125
-84.85388947,-121.3170166,0.394653320000089
-84.86267853,-121.31984711,0.394775390000177
-84.85334778,-121.32363129,0.394775390000177
-84.8738327,-121.32025909,0.394897460000038
-84.852211,-121.30695343,0.394897460000038
-84.85172272,-121.31443787,0.394897460000038
-84.85166931,-121.33228302,0.394897460000038
-84.86984253,-121.31826782,0.395019530000127
-84.91850281,-121.33811951,0.395019530000127
-84.88208771,-121.31916809,0.395019530000127
-84.85073853,-121.30589294,0.395019530000127
-84.8741684,-121.32682037,0.395141600000215
-84.89318848,-121.32402802,0.395141600000215
-84.88535309,-121.31877136,0.395141600000215
-84.86058044,-121.31121063,0.395141600000215
-84.86543274,-121.33164215,0.395263670000077
-84.85691071,-121.32436371,0.395263670000077
-84.86003876,-121.32492065,0.395263670000077
-84.87185669,-121.31936646,0.395385750000059
-84.85874176,-121.31646729,0.395507820000148
-84.88339233,-121.31743622,0.395507820000148
-84.85691071,-121.30857849,0.395507820000148
-84.85299683,-121.32837677,0.395629890000009
-84.8719635,-121.31481171,0.395751960000098
-84.85096741,-121.32872772,0.395751960000098
-84.86569977,-121.31680298,0.395874030000186
-84.85999298,-121.32003021,0.395874030000186
-84.87513733,-121.31716156,0.395874030000186
-84.8786087,-121.31803131,0.395996100000048
-84.86395264,-121.33055878,0.395996100000048
-84.87333679,-121.34211731,0.396240240000225
-84.8744812,-121.33764648,0.396362310000086
-84.85929871,-121.32740021,0.396362310000086
-84.89859772,-121.32640839,0.396484380000174
-84.85024261,-121.31333923,0.396484380000174
-84.85317993,-121.31517792,0.396606450000036
-84.8563385,-121.32465363,0.396606450000036
-84.85127258,-121.33177185,0.396606450000036
-84.89100647,-121.32115936,0.396728520000124
-84.87006378,-121.33473969,0.396728520000124
-84.86195374,-121.33048248,0.396728520000124
-84.85738373,-121.30905914,0.396728520000124
-84.85366058,-121.32367706,0.396728520000124
-84.86122131,-121.31616211,0.396850590000213
-84.91387177,-121.33364868,0.396850590000213
-84.873703,-121.33836365,0.396850590000213
-84.8727417,-121.31632233,0.396972660000074
-84.87071991,-121.31520844,0.396972660000074
-84.93253326,-121.34475708,0.396972660000074
-84.8634491,-121.33026886,0.396972660000074
-84.85533905,-121.31799316,0.396972660000074
-84.85505676,-121.31897736,0.396972660000074
-84.86077881,-121.32248688,0.396972660000074
-84.89467621,-121.32350922,0.397094730000163
-84.89438629,-121.32476044,0.397094730000163
-84.88659668,-121.31825256,0.397094730000163
-84.85417938,-121.33000183,0.397094730000163
-84.86707306,-121.3123703,0.397216800000024
-84.86270142,-121.31838989,0.397216800000024
-84.85363007,-121.31668091,0.397216800000024
-84.86047363,-121.32939911,0.397460940000201
-84.85347748,-121.32618713,0.397460940000201
-84.92758179,-121.34282684,0.397583010000062
-84.88401794,-121.32039642,0.397583010000062
-84.85594177,-121.32224274,0.397583010000062
-84.85546875,-121.32659912,0.397827150000012
-84.85389709,-121.30789948,0.3979492200001
-84.85761261,-121.32479095,0.3979492200001
-84.884552,-121.31939697,0.398071290000189
-84.8613205,-121.31038666,0.398071290000189
-84.85704041,-121.32272339,0.398071290000189
-84.94059753,-121.34999084,0.39819336000005
-84.85784912,-121.30927277,0.39819336000005
-84.94457245,-121.3474884,0.39819336000005
-84.85140991,-121.31532288,0.398315430000139
-84.88140106,-121.34494781,0.398315430000139
-84.85516357,-121.30742645,0.3984375
-84.86105347,-121.3260498,0.3984375
-84.89196777,-121.32187653,0.398559570000089
-84.86968994,-121.31465149,0.398559570000089
-84.85241699,-121.30683136,0.398559570000089
-84.8536911,-121.32189178,0.398559570000089
-84.85730743,-121.32575989,0.398559570000089
-84.87304688,-121.31542206,0.398681640000177
-84.87238312,-121.31649017,0.398681640000177
-84.86804199,-121.33460999,0.398681640000177
-84.85214233,-121.30782318,0.398681640000177
-84.85066223,-121.33074951,0.398681640000177
-84.87463379,-121.31687927,0.398803710000038
-84.91947937,-121.33751678,0.398803710000038
-84.90029144,-121.32739258,0.398803710000038
-84.90499115,-121.32904816,0.398925780000127
-84.86522675,-121.31298828,0.398925780000127
-84.86219788,-121.32940674,0.398925780000127
-84.85687256,-121.32422638,0.398925780000127
-84.94895172,-121.34919739,0.398925780000127
-84.85784912,-121.33251953,0.399047850000215
-84.88424683,-121.32061005,0.399169920000077
-84.8555603,-121.31791687,0.399292000000059
-84.90846252,-121.32988739,0.399414070000148
-84.87738037,-121.33965302,0.399414070000148
-84.87110138,-121.31691742,0.399414070000148
-84.85339355,-121.31535339,0.399414070000148
-84.85768127,-121.32224274,0.399414070000148
-84.93518829,-121.34651947,0.399536140000009
-84.86914063,-121.31559753,0.399536140000009
-84.85842133,-121.32485199,0.399536140000009
-84.88848877,-121.32073212,0.399658210000098
-84.87853241,-121.32830048,0.399780280000186
-84.8959198,-121.3229599,0.399780280000186
-84.866539,-121.31365204,0.400024420000136
-84.87384796,-121.3266983,0.400146490000225
-84.93048859,-121.34458923,0.400146490000225
-84.88369751,-121.32156372,0.400146490000225
-84.86309052,-121.33239746,0.400268560000086
-84.85791016,-121.32247162,0.400390630000174
-84.85954285,-121.32369995,0.400512700000036
-84.87419891,-121.33451843,0.400634770000124
-84.8854599,-121.3213501,0.400634770000124
-84.8635025,-121.31188202,0.400634770000124
-84.89121246,-121.32128143,0.400756840000213
-84.85836029,-121.32396698,0.400756840000213
-84.85267639,-121.32492065,0.400756840000213
-84.8812027,-121.34472656,0.400878910000074
-84.87390137,-121.33849335,0.400878910000074
-84.8553772,-121.32312012,0.400878910000074
-84.87478638,-121.3164978,0.401000980000163
-84.85410309,-121.32382202,0.401123050000024
-84.87879944,-121.3181076,0.401245120000112
-84.87088776,-121.3137207,0.401367190000201
-84.88001251,-121.34266663,0.401367190000201
-84.8551178,-121.32611847,0.401367190000201
-84.87271881,-121.31639862,0.401489260000062
-84.88287354,-121.34725952,0.401489260000062
-84.87522888,-121.33094788,0.401611330000151
-84.85214233,-121.32248688,0.401611330000151
-84.85835266,-121.32369232,0.401733400000012
-84.85556793,-121.30908203,0.401733400000012
-84.87335968,-121.33943939,0.4018554700001
-84.85135651,-121.32321167,0.4018554700001
-84.87140656,-121.33786774,0.4018554700001
-84.85141754,-121.3318634,0.4018554700001
-84.86421204,-121.33589172,0.401977540000189
-84.92875671,-121.34346771,0.40209961000005
-84.85977173,-121.31046295,0.40209961000005
-84.85794067,-121.32090759,0.40209961000005
-84.85043335,-121.31316376,0.40209961000005
-84.85662842,-121.32261658,0.402221680000139
-84.85561371,-121.32334137,0.402221680000139
-84.9474411,-121.34940338,0.402221680000139
-84.86665344,-121.31302643,0.40234375
-84.87371826,-121.32740021,0.402465820000089
-84.89907837,-121.32498169,0.402465820000089
-84.86167908,-121.32878113,0.402465820000089
-84.85756683,-121.30886841,0.402465820000089
-84.89266205,-121.32227325,0.402587890000177
-84.87036896,-121.31529236,0.402587890000177
-84.85389709,-121.32930756,0.402587890000177
-84.87596893,-121.31977081,0.402709960000038
-84.87477875,-121.31817627,0.402709960000038
-84.8863678,-121.32331085,0.402709960000038
-84.88265991,-121.32193756,0.402709960000038
-84.92315674,-121.33825684,0.402832030000127
-84.88021088,-121.32035828,0.402832030000127
-84.87281799,-121.31685638,0.402832030000127
-84.85119629,-121.30464935,0.402832030000127
-84.85237122,-121.32270813,0.402832030000127
-84.85517883,-121.32589722,0.402832030000127
-84.88298035,-121.31968689,0.403076170000077
-84.86405182,-121.32508087,0.403076170000077
-84.85413361,-121.30673981,0.403076170000077
-84.85185242,-121.32363129,0.403076170000077
-84.8589325,-121.29959106,0.403076170000077
-84.86321259,-121.32602692,0.403198250000059
-84.93363953,-121.34684753,0.403320320000148
-84.89788055,-121.32290649,0.403320320000148
-84.86118317,-121.31986237,0.403320320000148
-84.86192322,-121.31243134,0.403442390000009
-84.86676788,-121.33367157,0.403442390000009
-84.8588562,-121.32289886,0.403442390000009
-84.85183716,-121.32341766,0.403442390000009
-84.86779022,-121.33293915,0.403564460000098
-84.85870361,-121.32013702,0.403564460000098
-84.85575867,-121.31803894,0.403564460000098
-84.85473633,-121.31876373,0.403564460000098
-84.87187195,-121.33833313,0.403564460000098
-84.86937714,-121.33799744,0.403564460000098
-84.85656738,-121.3245163,0.403564460000098
-84.86971283,-121.33550262,0.403686530000186
-84.85652924,-121.30954742,0.403686530000186
-84.87256622,-121.34010315,0.403686530000186
-84.86717987,-121.33641815,0.403686530000186
-84.86031342,-121.32480621,0.403808600000048
-84.87090302,-121.31388092,0.403930670000136
-84.89980316,-121.32546234,0.403930670000136
-84.88220215,-121.34391022,0.403930670000136
-84.86167145,-121.32872772,0.403930670000136
-84.8649292,-121.33634186,0.403930670000136
-84.88195038,-121.32037354,0.404052740000225
-84.86762238,-121.31465149,0.404052740000225
-84.92337799,-121.33872986,0.404174810000086
-84.85632324,-121.3237915,0.404174810000086
-84.85134888,-121.32288361,0.404174810000086
-84.9214325,-121.3371582,0.404296880000174
-84.878479,-121.31925201,0.404296880000174
-84.87908173,-121.32621002,0.404418950000036
-84.94004059,-121.34976959,0.404418950000036
-84.85938263,-121.32187653,0.404418950000036
-84.85603333,-121.30925751,0.404418950000036
-84.86753845,-121.34066772,0.404418950000036
-84.85214996,-121.32994843,0.404418950000036
-84.85900879,-121.30986023,0.404541020000124
-84.86225128,-121.3189621,0.404663090000213
-84.89855957,-121.32463837,0.404663090000213
-84.89601898,-121.32581329,0.404663090000213
-84.87181854,-121.31626892,0.404663090000213
-84.85523224,-121.32592773,0.404663090000213
-84.85281372,-121.32800293,0.404663090000213
-84.86318207,-121.32054138,0.404785160000074
-84.85212708,-121.32392883,0.404785160000074
-84.86501312,-121.32554626,0.404907230000163
-84.8710022,-121.34150696,0.404907230000163
-84.85150909,-121.33190918,0.404907230000163
-84.90910339,-121.33148193,0.405029300000024
-84.88075256,-121.31829834,0.405029300000024
-84.88831329,-121.32454681,0.405029300000024
-84.85469818,-121.30973053,0.405029300000024
-84.85671997,-121.31446838,0.405151370000112
-84.91471863,-121.33541107,0.405151370000112
-84.86422729,-121.32652283,0.405151370000112
-84.85236359,-121.30661774,0.405151370000112
-84.85157776,-121.30734253,0.405151370000112
-84.8538208,-121.32343292,0.405151370000112
-84.864151,-121.33677673,0.405151370000112
-84.85637665,-121.32427216,0.405151370000112
-84.87506104,-121.31552124,0.405273440000201
-84.86737061,-121.31436157,0.405273440000201
-84.86051178,-121.32539368,0.405273440000201
-84.85034943,-121.3223114,0.405395510000062
-84.85427094,-121.31717682,0.405517580000151
-84.85015106,-121.31304169,0.405517580000151
-84.86540985,-121.31699371,0.405639650000012
-84.86344147,-121.31170654,0.405639650000012
-84.85397339,-121.32961273,0.405639650000012
-84.87481689,-121.3229599,0.4057617200001
-84.92166138,-121.33737183,0.4057617200001
-84.88980103,-121.32431793,0.4057617200001
-84.85617828,-121.31973267,0.4057617200001
-84.87132263,-121.3157196,0.405883790000189
-84.86846161,-121.3346405,0.405883790000189
-84.85912323,-121.32958221,0.405883790000189
-84.85532379,-121.30744171,0.405883790000189
-84.87377167,-121.33644104,0.405883790000189
-84.86904144,-121.31239319,0.40600586000005
-84.85952759,-121.32459259,0.40600586000005
-84.85974121,-121.32656097,0.40600586000005
-84.93267059,-121.34471893,0.406127930000139
-84.8557663,-121.31281281,0.406127930000139
-84.8786087,-121.3190918,0.40625
-84.87519073,-121.34310913,0.40625
-84.86910248,-121.33789825,0.40625
-84.86196899,-121.31063843,0.406372070000089
-84.85549164,-121.32647705,0.406372070000089
-84.91892242,-121.33674622,0.406494140000177
-84.86257935,-121.33068085,0.406494140000177
-84.85275269,-121.31735229,0.406494140000177
-84.85240936,-121.32422638,0.406494140000177
-84.87677002,-121.31639099,0.406616210000038
-84.88040924,-121.32048798,0.406616210000038
-84.87879944,-121.3261795,0.406738280000127
-84.93634033,-121.34706879,0.406738280000127
-84.86837006,-121.31384277,0.406738280000127
-84.86759186,-121.31455994,0.406738280000127
-84.8657608,-121.3327713,0.406860350000215
-84.86956024,-121.31735992,0.406982420000077
-84.85919189,-121.31414032,0.406982420000077
-84.91494751,-121.33560944,0.406982420000077
-84.88710022,-121.32244873,0.406982420000077
-84.85829163,-121.30825043,0.406982420000077
-84.86087036,-121.32215118,0.406982420000077
-84.888237,-121.34925842,0.407104500000059
-84.86122894,-121.31008911,0.407104500000059
-84.85134888,-121.30602264,0.407104500000059
-84.87306213,-121.33901215,0.407104500000059
-84.87560272,-121.3391037,0.407104500000059
-84.86450958,-121.31150055,0.407226570000148
-84.90837097,-121.32987976,0.407226570000148
-84.88627625,-121.32440948,0.407226570000148
-84.85906219,-121.30751801,0.407226570000148
-84.85706329,-121.31252289,0.407348640000009
-84.87155151,-121.31591797,0.407348640000009
-84.85884857,-121.32248688,0.407348640000009
-84.85664368,-121.30931854,0.407348640000009
-84.86003876,-121.33155823,0.407470710000098
-84.85877228,-121.31807709,0.407470710000098
-84.86093903,-121.326828,0.407836920000136
-84.88279724,-121.34705353,0.407958990000225
-84.85311127,-121.32556152,0.407958990000225
-84.86099243,-121.3081131,0.408081060000086
-84.85204315,-121.31552124,0.408081060000086
-84.86811066,-121.31352997,0.408203130000174
-84.8968811,-121.32897949,0.408325200000036
-84.87251282,-121.31565857,0.408447270000124
-84.88435364,-121.32180786,0.408447270000124
-84.86640167,-121.31221771,0.408447270000124
-84.85884857,-121.32148743,0.408447270000124
-84.85575104,-121.32463837,0.408447270000124
-84.85688019,-121.32234955,0.408447270000124
-84.90566254,-121.32800293,0.408569340000213
-84.86134338,-121.31994629,0.408569340000213
-84.86488342,-121.31826019,0.408691410000074
-84.87426758,-121.31622314,0.408691410000074
-84.85925293,-121.30872345,0.408691410000074
-84.85504913,-121.30709076,0.408691410000074
-84.85626221,-121.32405853,0.408691410000074
-84.88263702,-121.32048798,0.408813480000163
-84.85868073,-121.32672119,0.408813480000163
-84.87136841,-121.3366394,0.408813480000163
-84.86022186,-121.30532074,0.408813480000163
-84.88511658,-121.32106781,0.408935550000024
-84.86711884,-121.32849121,0.408935550000024
-84.85247803,-121.32476807,0.408935550000024
-84.87149048,-121.34065247,0.408935550000024
-84.86582184,-121.32707977,0.409057620000112
-84.85266113,-121.32202911,0.409057620000112
-84.85752869,-121.30764771,0.409179690000201
-84.87384796,-121.33673859,0.409179690000201
-84.86593628,-121.31066895,0.409423830000151
-84.85823822,-121.31820679,0.409423830000151
-84.85183716,-121.32949829,0.409423830000151
-84.88883209,-121.32216644,0.409545900000012
-84.86099243,-121.3087616,0.409545900000012
-84.85894775,-121.30993652,0.409545900000012
-84.86862946,-121.33602905,0.409545900000012
-84.85140991,-121.32544708,0.409545900000012
-84.87628937,-121.31790161,0.4096679700001
-84.88381958,-121.32250214,0.4096679700001
-84.86638641,-121.31217957,0.4096679700001
-84.86540222,-121.32740784,0.4096679700001
-84.85173035,-121.32447052,0.4096679700001
-84.8614502,-121.32578278,0.409790040000189
-84.8897171,-121.32543945,0.40991211000005
-84.86193085,-121.33405304,0.40991211000005
-84.8530426,-121.31498718,0.40991211000005
-84.86717224,-121.31825256,0.410034180000139
-84.87645721,-121.34127045,0.410034180000139
-84.8543396,-121.3055191,0.410034180000139
-84.85716248,-121.32688141,0.410034180000139
-84.88285828,-121.32095337,0.41015625
-84.85610199,-121.32083893,0.41015625
-84.85703278,-121.32286835,0.41015625
-84.85427094,-121.32443237,0.41015625
-84.86392975,-121.31252289,0.410278320000089
-84.90522766,-121.33319092,0.410278320000089
-84.85975647,-121.30793762,0.410278320000089
-84.85314941,-121.3034668,0.410278320000089
-84.86652374,-121.32814789,0.410278320000089
-84.86562347,-121.31574249,0.410400390000177
-84.92401123,-121.34028625,0.410400390000177
-84.86180878,-121.31217957,0.410644530000127
-84.89298248,-121.32501984,0.410644530000127
-84.86567688,-121.3103714,0.410644530000127
-84.85584259,-121.30529785,0.410644530000127
-84.85601044,-121.30780792,0.410644530000127
-84.86196136,-121.32501221,0.410766600000215
-84.85543823,-121.32253265,0.410888670000077
-84.87130737,-121.31429291,0.411010750000059
-84.85848999,-121.30838013,0.411010750000059
-84.86025238,-121.32369995,0.411010750000059
-84.85192108,-121.32592773,0.411010750000059
-84.85233307,-121.32704926,0.411010750000059
-84.94761658,-121.34916687,0.411010750000059
-84.8656311,-121.32736969,0.411132820000148
-84.85735321,-121.32035065,0.411132820000148
-84.91861725,-121.33659363,0.411254890000009
-84.88954926,-121.32263947,0.411254890000009
-84.88378906,-121.3227005,0.411254890000009
-84.86482239,-121.32933807,0.411254890000009
-84.85941315,-121.31289673,0.411376960000098
-84.9412384,-121.34883118,0.411376960000098
-84.92967987,-121.34269714,0.411376960000098
-84.8744812,-121.33991241,0.411376960000098
-84.85836029,-121.30435944,0.411376960000098
-84.85127258,-121.314888,0.411376960000098
-84.88784027,-121.32131958,0.411499030000186
-84.87667847,-121.34147644,0.411499030000186
-84.85035706,-121.30409241,0.411499030000186
-84.86518097,-121.31006622,0.411621100000048
-84.85787964,-121.32373047,0.411621100000048
-84.87188721,-121.31771088,0.411743170000136
-84.86933899,-121.31773376,0.411743170000136
-84.87361908,-121.34338379,0.411743170000136
-84.8533783,-121.30368042,0.411743170000136
-84.85349274,-121.2978363,0.411743170000136
-84.85611725,-121.31952667,0.411865240000225
-84.85340881,-121.30242157,0.411987310000086
-84.8589325,-121.32537079,0.411987310000086
-84.86383057,-121.32878876,0.411987310000086
-84.91596222,-121.33347321,0.412109380000174
-84.85904694,-121.30609894,0.412109380000174
-84.853508,-121.32274628,0.412109380000174
-84.87863922,-121.31925201,0.412231450000036
-84.87181854,-121.31327057,0.412231450000036
-84.85778809,-121.32208252,0.412231450000036
-84.85571289,-121.32282257,0.412231450000036
-84.90818787,-121.33371735,0.412353520000124
-84.88973999,-121.32411194,0.412353520000124
-84.87172699,-121.33953857,0.412353520000124
-84.86434937,-121.32475281,0.412353520000124
-84.85991669,-121.32038879,0.412353520000124
-84.87857819,-121.34426117,0.412597660000074
-84.85707855,-121.30477142,0.412597660000074
-84.86360931,-121.31350708,0.412719730000163
-84.86679077,-121.31899261,0.412719730000163
-84.85591125,-121.31800079,0.412719730000163
-84.85283661,-121.32762146,0.412719730000163
-84.90789795,-121.33468628,0.412841800000024
-84.87683105,-121.34420013,0.412841800000024
-84.86267853,-121.30970001,0.412841800000024
-84.85234833,-121.32763672,0.412841800000024
-84.85922241,-121.32309723,0.412841800000024
-84.86509705,-121.31703186,0.412963870000112
-84.92398834,-121.34020996,0.412963870000112
-84.88524628,-121.32344055,0.412963870000112
-84.86165619,-121.29678345,0.413085940000201
-84.87021637,-121.33171082,0.413085940000201
-84.92742157,-121.34230804,0.413330080000151
-84.86974335,-121.32996368,0.413330080000151
-84.86128235,-121.32965851,0.413452150000012
-84.86740112,-121.31033325,0.4135742200001
-84.87204742,-121.31349182,0.4135742200001
-84.92646027,-121.34893799,0.4135742200001
-84.9015274,-121.33045197,0.413696290000189
-84.86582184,-121.32855225,0.413696290000189
-84.85639191,-121.32113647,0.413696290000189
-84.85392761,-121.32369995,0.413696290000189
-84.86151123,-121.32305145,0.413696290000189
-84.89372253,-121.32418823,0.41381836000005
-84.87935638,-121.31947327,0.41381836000005
-84.85050964,-121.31427765,0.41381836000005
-84.8724823,-121.31571198,0.413940430000139
-84.87348938,-121.31934357,0.413940430000139
-84.85923004,-121.32306671,0.413940430000139
-84.85324097,-121.31511688,0.413940430000139
-84.94615936,-121.349617,0.413940430000139
-84.87772369,-121.3212738,0.4140625
-84.93901062,-121.34716797,0.4140625
-84.8618927,-121.32614899,0.4140625
-84.86061859,-121.32660675,0.4140625
-84.88072968,-121.34687805,0.4140625
-84.85955811,-121.32858276,0.414184570000089
-84.8735733,-121.33579254,0.414184570000089
-84.92279053,-121.33811951,0.414306640000177
-84.89118958,-121.32483673,0.414306640000177
-84.86515045,-121.3099823,0.414306640000177
-84.94194031,-121.34925079,0.414428710000038
-84.86425018,-121.33046722,0.414550780000127
-84.91861725,-121.33522797,0.414672850000215
-84.91416931,-121.33358002,0.414672850000215
-84.86831665,-121.31233215,0.414672850000215
-84.86225128,-121.30686951,0.414672850000215
-84.85694885,-121.32396698,0.414672850000215
-84.8563385,-121.31944275,0.414794920000077
-84.88052368,-121.34549713,0.414917000000059
-84.86739349,-121.31028748,0.414917000000059
-84.85510254,-121.32531738,0.414917000000059
-84.85919189,-121.32402802,0.415039070000148
-84.85812378,-121.32624817,0.415039070000148
-84.86219788,-121.32111359,0.415039070000148
-84.8754425,-121.32015991,0.415161140000009
-84.91609192,-121.33612823,0.415283210000098
-84.86595917,-121.3079834,0.415283210000098
-84.87928772,-121.32395935,0.415405280000186
-84.89292908,-121.32485962,0.415405280000186
-84.89073181,-121.32328796,0.415527350000048
-84.87300873,-121.31420135,0.415527350000048
-84.91763306,-121.33466339,0.415649420000136
-84.86235809,-121.32637024,0.415649420000136
-84.86105347,-121.32833099,0.415649420000136
-84.85701752,-121.32144165,0.415649420000136
-84.86374664,-121.32991028,0.415771490000225
-84.89112854,-121.32628632,0.415893560000086
-84.85848236,-121.30696106,0.415893560000086
-84.86843872,-121.33181,0.415893560000086
-84.9155426,-121.33734131,0.416015630000174
-84.86096954,-121.32280731,0.416015630000174
-84.86073303,-121.33030701,0.416015630000174
-84.85684967,-121.31867218,0.416015630000174
-84.884758,-121.32182312,0.416137700000036
-84.85900879,-121.30596924,0.416137700000036
-84.86183167,-121.32733917,0.416137700000036
-84.86515045,-121.32562256,0.416137700000036
-84.91304016,-121.33699799,0.416259770000124
-84.93672943,-121.34726715,0.416259770000124
-84.88770294,-121.32391357,0.416259770000124
-84.85765839,-121.32444763,0.416259770000124
-84.85655975,-121.31990051,0.416381840000213
-84.86521149,-121.30741119,0.416503910000074
-84.86296082,-121.30734253,0.416503910000074
-84.86165619,-121.32456207,0.416503910000074
-84.86855316,-121.31285095,0.416625980000163
-84.87003326,-121.31508636,0.416625980000163
-84.88172913,-121.34622955,0.416748050000024
-84.87084198,-121.31134033,0.416748050000024
-84.87352753,-121.31317902,0.416748050000024
-84.85639191,-121.32489014,0.416748050000024
-84.87622833,-121.3147583,0.416870120000112
-84.9071579,-121.3330307,0.416992190000201
-84.89711761,-121.32620239,0.416992190000201
-84.89385986,-121.32659149,0.416992190000201
-84.85533142,-121.31884003,0.416992190000201
-84.85327148,-121.31607056,0.416992190000201
-84.87480927,-121.34043884,0.417114260000062
-84.86148834,-121.30626678,0.417236330000151
-84.85234833,-121.31822968,0.417236330000151
-84.85337067,-121.32270813,0.417236330000151
-84.85980988,-121.3274765,0.417358400000012
-84.85549164,-121.30606842,0.417358400000012
-84.8558197,-121.30924225,0.417358400000012
-84.94264221,-121.34967804,0.4174804700001
-84.89185333,-121.32675934,0.4174804700001
-84.85845947,-121.30690765,0.4174804700001
-84.86569977,-121.31519318,0.417602540000189
-84.85791779,-121.31706238,0.417602540000189
-84.91422272,-121.33898926,0.417602540000189
-84.85471344,-121.30679321,0.417602540000189
-84.85099792,-121.30567169,0.417602540000189
-84.88474274,-121.32202148,0.41772461000005
-84.85459137,-121.31829071,0.41772461000005
-84.8556366,-121.32457733,0.41772461000005
-84.86212158,-121.33305359,0.417846680000139
-84.86586761,-121.32671356,0.417846680000139
-84.86029053,-121.32099915,0.417846680000139
-84.86151123,-121.31221771,0.41796875
-84.92819214,-121.33992767,0.41796875
-84.88191986,-121.34770203,0.41796875
-84.85813904,-121.32465363,0.41796875
-84.85323334,-121.32797241,0.41796875
-84.87419128,-121.31672668,0.418090820000089
-84.9257431,-121.33834839,0.418090820000089
-84.86258698,-121.32630157,0.418090820000089
-84.85910797,-121.33319092,0.418090820000089
-84.85449982,-121.30551147,0.418090820000089
-84.86477661,-121.32788086,0.418090820000089
-84.87255859,-121.3150177,0.418212890000177
-84.87463379,-121.32250977,0.418212890000177
-84.93279266,-121.3445816,0.418212890000177
-84.9352417,-121.34616089,0.418212890000177
-84.85870361,-121.32266235,0.418212890000177
-84.87043762,-121.3134079,0.418334960000038
-84.85755157,-121.32713318,0.418334960000038
-84.85323334,-121.30596161,0.418334960000038
-84.87799072,-121.32026672,0.418457030000127
-84.88575745,-121.32128143,0.418457030000127
-84.85520172,-121.32537842,0.418457030000127
