"X","Y","Z"
-85.02774811,-121.42976379,0.0848388700001124
-85.02783203,-121.4238205,0.0849609399999736
-85.01725769,-121.35267639,0.0849609399999736
-85.01196289,-121.35954285,0.0849609399999736
-85.00888062,-121.36356354,0.0849609399999736
-85.01394653,-121.4183197,0.0849609399999736
-85.01902771,-121.41351318,0.0850830100000621
-85.02339935,-121.40257263,0.0852050800001507
-85.02117157,-121.43424988,0.0852050800001507
-85.00395203,-121.35926056,0.0853271500000119
-85.04662323,-121.43192291,0.0853271500000119
-85.0250473,-121.42642975,0.0853271500000119
-85.0094223,-121.43383026,0.0853271500000119
-85.0289917,-121.40235138,0.0854492200001005
-85.02403259,-121.42996216,0.0854492200001005
-85.03250122,-121.35536957,0.0855712899999617
-85.0281601,-121.39714813,0.0855712899999617
-85.0463028,-121.44142151,0.0855712899999617
-85.02075958,-121.39485168,0.0855712899999617
-85.02223206,-121.42405701,0.0855712899999617
-85.00344849,-121.42684174,0.0855712899999617
-85.02639771,-121.35305786,0.0856933600000502
-85.01526642,-121.3527832,0.0856933600000502
-85.0115509,-121.36502838,0.0856933600000502
-85.02297211,-121.43389893,0.0856933600000502
-85.04886627,-121.4316864,0.0858154300001388
-85.03943634,-121.42315674,0.0858154300001388
-85.0270462,-121.4188385,0.0858154300001388
-85.00669861,-121.36289978,0.0858154300001388
-85.0110321,-121.43270874,0.0858154300001388
-85.04264832,-121.44599915,0.0859375
-85.01770782,-121.39862061,0.0859375
-85.00611877,-121.38642883,0.0859375
-85.02153778,-121.42024231,0.0859375
-85.02519226,-121.4000473,0.0860595700000886
-85.01429749,-121.38130188,0.0860595700000886
-85.01528931,-121.40395355,0.0860595700000886
-85.02586365,-121.4356308,0.0860595700000886
-85.00739288,-121.35494232,0.0861816399999498
-85.02935028,-121.36724091,0.0861816399999498
-85.04473114,-121.43022919,0.0861816399999498
-85.01580048,-121.44338226,0.0861816399999498
-85.01042938,-121.35064697,0.0861816399999498
-85.00956726,-121.36488342,0.0861816399999498
-85.0243988,-121.39382172,0.0863037100000383
-85.01373291,-121.35341644,0.0863037100000383
-85.0225296,-121.43663025,0.0863037100000383
-85.01856995,-121.39743805,0.0864257800001269
-85.01521301,-121.43405151,0.0864257800001269
-85.02648926,-121.38545227,0.0865478499999881
-85.01035309,-121.39028168,0.0865478499999881
-85.0478363,-121.42675781,0.0866699200000767
-85.01570892,-121.4019928,0.0866699200000767
-85.04171753,-121.44155884,0.0867919899999379
-85.02822876,-121.44793701,0.0867919899999379
-85.01820374,-121.41197205,0.0869140600000264
-85.0087738,-121.4267807,0.0869140600000264
-85.01164246,-121.37082672,0.087036130000115
-85.01809692,-121.38764191,0.087036130000115
-85.01838684,-121.4032135,0.087036130000115
-85.02604675,-121.41782379,0.087036130000115
-85.02522278,-121.42713165,0.087036130000115
-85.02967834,-121.39958954,0.0871581999999762
-85.01931763,-121.41056061,0.0871581999999762
-85.02454376,-121.43052673,0.0871581999999762
-85.02205658,-121.42054749,0.0871581999999762
-85.0085907,-121.43228149,0.0871581999999762
-85.00257874,-121.42578888,0.0871581999999762
-85.01724243,-121.39234161,0.0872802700000648
-85.0231781,-121.42540741,0.0872802700000648
-85.01155853,-121.35310364,0.0872802700000648
-85.04988861,-121.42809296,0.087402339999926
-85.02104187,-121.39514923,0.087402339999926
-85.0206604,-121.40966034,0.087402339999926
-85.00926971,-121.4300766,0.087402339999926
-85.01374817,-121.35043335,0.0875244100000145
-85.02378845,-121.42095184,0.0875244100000145
-85.02301025,-121.43743896,0.0875244100000145
-85.04142761,-121.42420959,0.0876464800001031
-85.0308075,-121.36943054,0.0877685499999643
-85.02729797,-121.41768646,0.0877685499999643
-85.01753998,-121.35022736,0.0877685499999643
-85.01522064,-121.37989807,0.0877685499999643
-85.01616669,-121.39652252,0.0877685499999643
-85.01280212,-121.42685699,0.0877685499999643
-85.02075195,-121.43283844,0.0878906200000529
-85.01180267,-121.3530426,0.0878906200000529
-85.02345276,-121.43196106,0.0878906200000529
-85.01122284,-121.36705017,0.0881347600000026
-85.0267868,-121.4329071,0.0881347600000026
-85.03562927,-121.35205841,0.0882568399999855
-85.0357132,-121.42742157,0.0882568399999855
-85.04138947,-121.43263245,0.0882568399999855
-85.01212311,-121.42932129,0.0882568399999855
-85.02632904,-121.43370056,0.0882568399999855
-85.03424835,-121.41674042,0.088378910000074
-85.01405334,-121.35974884,0.088378910000074
-85.02178192,-121.4085083,0.088378910000074
-85.00351715,-121.41838074,0.088378910000074
-85.04852295,-121.42398834,0.0885009799999352
-85.01251984,-121.36013031,0.0885009799999352
-85.01618195,-121.3935318,0.0885009799999352
-85.0190506,-121.43388367,0.0885009799999352
-85.03208923,-121.3645401,0.0886230500000238
-85.01271057,-121.35137177,0.0886230500000238
-85.00773621,-121.43099213,0.0886230500000238
-85.03761292,-121.42062378,0.0887451200001124
-85.01191711,-121.37111664,0.0887451200001124
-85.01661682,-121.39131165,0.0887451200001124
-85.02456665,-121.42754364,0.0887451200001124
-85.04286194,-121.42745209,0.0888671899999736
-85.01873016,-121.40927887,0.0889892600000621
-85.02380371,-121.41494751,0.0889892600000621
-85.00041199,-121.42214203,0.0889892600000621
-85.03559113,-121.36174774,0.0891113300001507
-85.02272797,-121.41912842,0.0891113300001507
-85.03877258,-121.42623901,0.0892334000000119
-85.01618958,-121.44905853,0.0892334000000119
-85.02372742,-121.43852234,0.0892334000000119
-85.01985931,-121.41739655,0.0892334000000119
-85.0148468,-121.43005371,0.0892334000000119
-85.00798798,-121.4280014,0.0892334000000119
-85.02822113,-121.43517303,0.0892334000000119
-85.01190186,-121.37489319,0.0894775399999617
-85.01557922,-121.39524841,0.0894775399999617
-85.02046967,-121.35199738,0.0895996100000502
-85.02996826,-121.41983032,0.0895996100000502
-85.04139709,-121.42414093,0.0897216800001388
-85.02835846,-121.43087006,0.0897216800001388
-85.0375824,-121.35414886,0.08984375
-85.01344299,-121.36173248,0.08984375
-85.02120209,-121.41915894,0.08984375
-85.03949738,-121.35476685,0.0899658200000886
-85.01959229,-121.40509796,0.0899658200000886
-85.02883911,-121.43441772,0.0899658200000886
-85.00061035,-121.42192841,0.0899658200000886
-85.03163147,-121.41771698,0.0900878899999498
-85.03658295,-121.44275665,0.0900878899999498
-85.01911926,-121.39829254,0.0900878899999498
-85.02053833,-121.41220093,0.0900878899999498
-85.00904083,-121.37316895,0.0900878899999498
-85.02661133,-121.43399048,0.0900878899999498
-85.04872894,-121.42259979,0.0902099600000383
-85.02845764,-121.38771057,0.0902099600000383
-85.03543091,-121.41999817,0.0902099600000383
-85.00952148,-121.37673187,0.0902099600000383
-85.01080322,-121.3531723,0.0902099600000383
-85.03118134,-121.37743378,0.0903320300001269
-85.01863861,-121.4333725,0.0903320300001269
-85.01241302,-121.37194061,0.0904540999999881
-85.02545166,-121.42337799,0.0904540999999881
-85.04586029,-121.42598724,0.0905761700000767
-85.0211792,-121.40422821,0.0906982399999379
-85.00527954,-121.41828156,0.0906982399999379
-85.0286026,-121.42035675,0.0908203100000264
-85.02900696,-121.3510437,0.090942380000115
-85.01412964,-121.35652924,0.090942380000115
-85.01216888,-121.36239624,0.090942380000115
-85.00421906,-121.41921234,0.090942380000115
-85.02954102,-121.43875122,0.0910644499999762
-85.00499725,-121.3547287,0.0911865200000648
-85.01721191,-121.40393066,0.091308589999926
-85.02056122,-121.41246796,0.091308589999926
-85.01281738,-121.36070251,0.0914306600000145
-85.02908325,-121.43195343,0.0914306600000145
-85.0104599,-121.42295837,0.0914306600000145
-85.02069092,-121.4332962,0.0914306600000145
-85.03813171,-121.35192871,0.0915527300001031
-85.03727722,-121.42160034,0.0915527300001031
-85.00884247,-121.36991882,0.0916747999999643
-85.00753784,-121.37056732,0.0916747999999643
-85.00533295,-121.37316132,0.0916747999999643
-85.01940155,-121.39859009,0.0917968700000529
-85.02429199,-121.43559265,0.0917968700000529
-85.02841187,-121.42790222,0.0920410100000026
-85.01583099,-121.42841339,0.0921630899999855
-85.03781891,-121.42913055,0.092285160000074
-85.02926636,-121.42575073,0.092285160000074
-85.03143311,-121.3504715,0.0924072299999352
-85.0178833,-121.39897919,0.0924072299999352
-85.01566315,-121.35366821,0.0925293000000238
-85.00756836,-121.36406708,0.0925293000000238
-85.01574707,-121.35894012,0.0926513700001124
-85.01275635,-121.39407349,0.0926513700001124
-85.02823639,-121.4366684,0.0926513700001124
-85.04058075,-121.42649078,0.0927734399999736
-85.02520752,-121.35041046,0.0927734399999736
-85.00158691,-121.36360168,0.0927734399999736
-85.00066376,-121.41092682,0.0928955100000621
-85.03970337,-121.3620224,0.0930175800001507
-85.02031708,-121.40019226,0.0930175800001507
-85.02913666,-121.43173218,0.0930175800001507
-85.01782227,-121.3513031,0.0930175800001507
-85.01927948,-121.35347748,0.0931396500000119
-85.01703644,-121.35227966,0.0931396500000119
-85.01112366,-121.36711121,0.0931396500000119
-85.0078125,-121.3708725,0.0931396500000119
-85.02728271,-121.42050171,0.0931396500000119
-85.02565002,-121.43798065,0.0932617200001005
-85.0388031,-121.4253006,0.0933837899999617
-85.01763916,-121.43132782,0.0933837899999617
-85.01011658,-121.39286804,0.0935058600000502
-85.00582886,-121.41561127,0.0935058600000502
-85.01838684,-121.35765839,0.0936279300001388
-85.01876831,-121.39456177,0.0936279300001388
-85.01616669,-121.40538788,0.0936279300001388
-85.00604248,-121.37449646,0.0936279300001388
-85.00711823,-121.41734314,0.0936279300001388
-85.03005219,-121.42250824,0.09375
-85.00222778,-121.35915375,0.09375
-85.00013733,-121.35887146,0.09375
-85.0282135,-121.42790985,0.0938720700000886
-85.01400757,-121.35607147,0.0939941399999498
-85.00569916,-121.42343903,0.0939941399999498
-85.0194931,-121.35022736,0.0941162100000383
-85.01860809,-121.35192108,0.0941162100000383
-85.0031662,-121.36650085,0.0941162100000383
-85.0309906,-121.43740845,0.0941162100000383
-85.02754974,-121.42402649,0.0942382800001269
-85.01799011,-121.3598938,0.0942382800001269
-85.00805664,-121.41970062,0.0942382800001269
-85.00628662,-121.36199188,0.0943603499999881
-85.01998138,-121.3507309,0.0944824200000767
-85.01728821,-121.35256195,0.0944824200000767
-85.02503204,-121.35016632,0.0944824200000767
-85.03005981,-121.43332672,0.0944824200000767
-85.02832031,-121.43644714,0.0944824200000767
-85.03333282,-121.42443085,0.0947265600000264
-85.01937866,-121.36477661,0.0949706999999762
-85.00962067,-121.36450958,0.0949706999999762
-85.00657654,-121.38408661,0.0949706999999762
-85.01957703,-121.41043854,0.0950927700000648
-85.04083252,-121.42532349,0.095214839999926
-85.00228882,-121.3589325,0.0953369100000145
-85.00794983,-121.38922119,0.0953369100000145
-85.0293808,-121.42951965,0.0953369100000145
-85.01867676,-121.36122131,0.0954589800001031
-85.02636719,-121.43605804,0.0954589800001031
-85.00364685,-121.41220856,0.0955810499999643
-85.02993011,-121.43559265,0.0957031200000529
-85.005867,-121.36147308,0.0958251900001414
-85.0145874,-121.42636108,0.0958251900001414
-85.02014923,-121.42906189,0.0958251900001414
-85.03884888,-121.42443085,0.0959472600000026
-85.01754761,-121.35009766,0.0959472600000026
-85.0303421,-121.43361664,0.0959472600000026
-85.009758,-121.41654968,0.0959472600000026
-85.03323364,-121.4307785,0.0959472600000026
-85.02163696,-121.35262299,0.0960693399999855
-85.0116806,-121.38349915,0.0960693399999855
-85.01583099,-121.35160065,0.0960693399999855
-85.03968811,-121.35346985,0.096191410000074
-85.04354858,-121.42369843,0.096191410000074
-85.00306702,-121.37505341,0.096191410000074
-85.02879333,-121.43752289,0.096191410000074
-85.03829193,-121.35044098,0.0963134799999352
-85.04696655,-121.42910767,0.0964355500000238
-85.01780701,-121.35339355,0.0964355500000238
-85.01830292,-121.36321259,0.0964355500000238
-85.02250671,-121.41520691,0.0964355500000238
-85.0087738,-121.36321259,0.0965576200001124
-85.00639343,-121.37757874,0.0965576200001124
-85.01802826,-121.35002136,0.0966796899999736
-85.0118103,-121.39505768,0.0969238300001507
-85.02919006,-121.42588043,0.0970459000000119
-85.00927734,-121.37605286,0.0970459000000119
-85.0043869,-121.41304016,0.0970459000000119
-85.00253296,-121.35809326,0.0970459000000119
-85.00195313,-121.36736298,0.0970459000000119
-85.02388,-121.3536377,0.0971679700001005
-85.01963043,-121.36257172,0.0971679700001005
-85.01748657,-121.42836761,0.0971679700001005
-85.02176666,-121.43145752,0.0971679700001005
-85.02073669,-121.42237091,0.0971679700001005
-85.01965332,-121.35170746,0.0972900399999617
-85.01870728,-121.35196686,0.0974121100000502
-85.00572968,-121.36073303,0.0974121100000502
-85.03102875,-121.43495178,0.0974121100000502
-85.03018951,-121.43614197,0.0974121100000502
-85.02442169,-121.43292999,0.0974121100000502
-85.01196289,-121.42217255,0.0974121100000502
-85.02567291,-121.42024231,0.0975341800001388
-85.03819275,-121.41760254,0.09765625
-85.00319672,-121.42102051,0.09765625
-85.04550934,-121.42578888,0.0977783200000886
-85.04103851,-121.42517853,0.0977783200000886
-85.0205307,-121.35764313,0.0977783200000886
-85.03130341,-121.43414307,0.0977783200000886
-85.01566315,-121.3622818,0.0980224600000383
-85.00058746,-121.42479706,0.0980224600000383
-85.00839996,-121.37174225,0.0981445300001269
-85.04055786,-121.35040283,0.0982665999999881
-85.0191803,-121.35903931,0.0982665999999881
-85.01316833,-121.39745331,0.0982665999999881
-85.00776672,-121.37670898,0.0982665999999881
-85.02990723,-121.43035889,0.0982665999999881
-85.00530243,-121.41462708,0.0982665999999881
-85.03066254,-121.43756104,0.0982665999999881
-85.03485107,-121.35362244,0.0983886700000767
-85.03309631,-121.42015839,0.0983886700000767
-85.00727081,-121.36061859,0.0983886700000767
-85.01107788,-121.36968994,0.0983886700000767
-85.04337311,-121.42415619,0.0985107399999379
-85.00393677,-121.36161041,0.0986328100000264
-85.00778198,-121.37345123,0.0986328100000264
-85.03562164,-121.43002319,0.0986328100000264
-85.02372742,-121.42938232,0.098754880000115
-85.02030945,-121.40904999,0.0988769499999762
-85.01419067,-121.42311096,0.0988769499999762
-85.00583649,-121.41744995,0.0988769499999762
-85.01976776,-121.35111237,0.0989990200000648
-85.0463562,-121.43118286,0.0989990200000648
-85.03838348,-121.42594147,0.0989990200000648
-85.03202057,-121.43907166,0.0989990200000648
-85.00975037,-121.41900635,0.0989990200000648
-85.01921844,-121.35253906,0.099121089999926
-85.0308609,-121.43470764,0.099121089999926
-85.01815796,-121.35973358,0.0992431600000145
-85.01331329,-121.37037659,0.0992431600000145
-85.03704834,-121.35440826,0.0993652300001031
-85.01312256,-121.37613678,0.0993652300001031
-85.0255127,-121.4197464,0.0993652300001031
-85.01663208,-121.36338043,0.0994872999999643
-85.02971649,-121.43010712,0.0994872999999643
-85.00798035,-121.37046814,0.0996093700000529
-85.01506805,-121.36401367,0.0996093700000529
-85.01000977,-121.37413788,0.0996093700000529
-85.04923248,-121.42903137,0.0997314400001414
-85.01402283,-121.41934967,0.0998535100000026
-85.02072144,-121.42230988,0.0998535100000026
-85.04483032,-121.36733246,0.0999755899999855
-85.02028656,-121.39051056,0.0999755899999855
-85.02424622,-121.4296875,0.0999755899999855
-85.00647736,-121.41625214,0.0999755899999855
-85.04068756,-121.43134308,0.0999755899999855
-85.04231262,-121.35150146,0.100097660000074
-85.01352692,-121.36789703,0.100097660000074
-85.03469849,-121.42179871,0.100219729999935
-85.01921844,-121.40422058,0.100219729999935
-85.01735687,-121.42163086,0.100219729999935
-85.03501129,-121.42398834,0.100219729999935
-85.03949738,-121.42156982,0.100341800000024
-85.01580811,-121.38063049,0.100463870000112
-85.01225281,-121.41973114,0.100463870000112
-85.01490784,-121.36650848,0.100585939999974
-85.02216339,-121.41172791,0.100585939999974
-85.03727722,-121.42073059,0.100708010000062
-85.00672913,-121.37164307,0.100708010000062
-85.01069641,-121.42035675,0.100708010000062
-85.02845001,-121.42289734,0.100708010000062
-85.04753113,-121.4270401,0.100830080000151
-85.01927948,-121.35558319,0.100830080000151
-85.01531982,-121.36454773,0.100830080000151
-85.00736237,-121.36367035,0.100830080000151
-85.0011673,-121.37547302,0.100830080000151
-85.02510834,-121.41899109,0.100830080000151
-85.03160095,-121.43554688,0.100830080000151
-85.03096008,-121.43724823,0.100830080000151
-85.03360748,-121.35019684,0.100952150000012
-85.01425934,-121.37174225,0.100952150000012
-85.00509644,-121.42034149,0.100952150000012
-85.02349854,-121.4108429,0.1010742200001
-85.01209259,-121.42523956,0.1010742200001
-85.0383606,-121.43531036,0.1010742200001
-85.01431274,-121.3840332,0.101196289999962
-85.03218842,-121.4233017,0.10131836000005
-85.01170349,-121.35553741,0.10131836000005
-85.04309082,-121.42537689,0.1015625
-85.02687836,-121.41914368,0.1015625
-85.02271271,-121.42758942,0.10180663999995
-85.03321075,-121.44096375,0.101928710000038
-85.01252747,-121.37187195,0.102050780000127
-85.02178192,-121.41723633,0.102172849999988
-85.04151154,-121.4372406,0.102172849999988
-85.01886749,-121.39996338,0.102294920000077
-85.03205872,-121.43660736,0.102294920000077
-85.0222168,-121.36035156,0.102416989999938
-85.02854919,-121.4365921,0.102416989999938
-85.01561737,-121.36459351,0.102539060000026
-85.02419281,-121.41217041,0.102539060000026
-85.00547791,-121.37885284,0.102539060000026
-85.01431274,-121.37177277,0.102661130000115
-85.0091629,-121.40872955,0.102783199999976
-85.04270935,-121.35845947,0.102905270000065
-85.03888702,-121.42363739,0.102905270000065
-85.00340271,-121.4180603,0.102905270000065
-85.00990295,-121.42182922,0.103027339999926
-85.01596069,-121.41726685,0.103027339999926
-85.02877045,-121.35035706,0.103149410000015
-85.00720978,-121.36971283,0.103149410000015
-85.0005188,-121.39752197,0.103149410000015
-85.00765228,-121.41539001,0.103149410000015
-85.02932739,-121.42433167,0.103271480000103
-85.02784729,-121.42675781,0.103393549999964
-85.03500366,-121.44111633,0.103393549999964
-85.03549957,-121.44441986,0.103393549999964
-85.01959229,-121.35915375,0.103515620000053
-85.01386261,-121.36823273,0.103515620000053
-85.00743866,-121.36696625,0.103515620000053
-85.00302124,-121.37213898,0.103515620000053
-85.0116272,-121.4213562,0.103515620000053
-85.01035309,-121.36820984,0.103637690000141
-85.02990723,-121.43897247,0.103637690000141
-85.01786804,-121.36203003,0.103759760000003
-85.01190186,-121.41271973,0.103881839999985
-85.01203918,-121.39819336,0.104125979999935
-85.00393677,-121.36695862,0.104125979999935
-85.02362061,-121.41690826,0.104125979999935
-85.01283264,-121.42333984,0.104125979999935
-85.01104736,-121.42369843,0.104125979999935
-85.02211761,-121.42449951,0.104125979999935
-85.01219177,-121.38667297,0.104248050000024
-85.01689911,-121.39707184,0.104248050000024
-85.01970673,-121.42537689,0.104370120000112
-85.04364777,-121.35565186,0.104492189999974
-85.04930115,-121.42832184,0.104492189999974
-85.01468658,-121.3996582,0.104492189999974
-85.02892303,-121.42552185,0.104492189999974
-85.01364899,-121.36170959,0.104614260000062
-85.03211212,-121.43363953,0.104614260000062
-85.02498627,-121.41577911,0.104858400000012
-85.03553772,-121.44444275,0.104858400000012
-85.02337646,-121.35295105,0.1049804700001
-85.01940155,-121.35890961,0.1049804700001
-85.01879883,-121.36338043,0.1049804700001
-85.01647186,-121.39955902,0.1049804700001
-85.00906372,-121.41101074,0.1049804700001
-85.00904083,-121.3631134,0.1049804700001
-85.02642822,-121.43595123,0.1049804700001
-85.04826355,-121.37050629,0.105102539999962
-85.00688934,-121.42601013,0.105102539999962
-85.02249908,-121.35790253,0.10522461000005
-85.02745819,-121.42275238,0.10522461000005
-85.00437927,-121.41641998,0.10522461000005
-85.01258087,-121.3661499,0.105346680000139
-85.03793335,-121.44287872,0.105346680000139
-85.01267242,-121.38748169,0.10546875
-85.04994202,-121.42533112,0.105590820000089
-85.03691864,-121.42165375,0.105590820000089
-85.00058746,-121.35592651,0.105590820000089
-85.01776886,-121.42500305,0.10571288999995
-85.01680756,-121.36347961,0.105834960000038
-85.00907135,-121.41754913,0.105834960000038
-85.00978088,-121.42137146,0.105957030000127
-85.01184845,-121.41847229,0.105957030000127
-85.02667236,-121.35016632,0.106079099999988
-85.01593018,-121.36517334,0.106079099999988
-85.01360321,-121.39183044,0.106079099999988
-85.03440094,-121.43383789,0.106079099999988
-85.00308228,-121.35639191,0.106323239999938
-85.03832245,-121.43518829,0.106323239999938
-85.04167938,-121.4298172,0.106445310000026
-85.01718903,-121.4006424,0.106445310000026
-85.0256424,-121.35991669,0.106567380000115
-85.01638031,-121.35970306,0.106567380000115
-85.01328278,-121.36723328,0.106567380000115
-85.02339172,-121.43373108,0.106689449999976
-85.01687622,-121.42720032,0.106689449999976
-85.02409363,-121.35102844,0.106811520000065
-85.0192337,-121.3586731,0.106811520000065
-85.02256775,-121.35768127,0.106933589999926
-85.02056885,-121.40894318,0.106933589999926
-85.03437042,-121.4331131,0.106933589999926
-85.00444794,-121.37129974,0.107055660000015
-85.01513672,-121.42707062,0.107055660000015
-85.00287628,-121.41381836,0.107055660000015
-85.03778076,-121.43914032,0.107177730000103
-85.01183319,-121.42455292,0.107177730000103
-85.01882172,-121.36090088,0.107299799999964
-85.01116943,-121.38488007,0.107299799999964
-85.02323151,-121.41040802,0.107299799999964
-85.00193787,-121.4240799,0.107299799999964
-85.00244904,-121.36065674,0.107421870000053
-85.03978729,-121.4281311,0.107543940000141
-85.00466919,-121.35578156,0.107543940000141
-85.03105927,-121.42479706,0.107543940000141
-85.0449295,-121.42706299,0.107666010000003
-85.01255798,-121.38976288,0.107666010000003
-85.037323,-121.41995239,0.107788089999985
-85.01531982,-121.364151,0.107788089999985
-85.03823853,-121.42562103,0.107910160000074
-85.02503967,-121.3553772,0.107910160000074
-85.01509094,-121.36061859,0.107910160000074
-85.01004791,-121.42517853,0.107910160000074
-85.0078125,-121.37684631,0.108032229999935
-85.04721832,-121.42707062,0.108154300000024
-85.03343964,-121.42584991,0.108154300000024
-85.02462769,-121.41529083,0.108154300000024
-85.03504181,-121.42710876,0.108154300000024
-85.01689148,-121.36026001,0.108276370000112
-85.02651978,-121.43601227,0.108276370000112
-85.02768707,-121.35057831,0.108398439999974
-85.01365662,-121.38884735,0.108398439999974
-85.04644775,-121.35209656,0.108520510000062
-85.01242828,-121.42719269,0.108642580000151
-85.01841736,-121.36013794,0.108764650000012
-85.01091003,-121.36306,0.108764650000012
-85.00514984,-121.35659027,0.108764650000012
-85.01608276,-121.3900528,0.1088867200001
-85.01480865,-121.39346313,0.1088867200001
-85.02597046,-121.41441345,0.1088867200001
-85.02999115,-121.4240036,0.1088867200001
-85.02236938,-121.35469055,0.109008789999962
-85.02153778,-121.35887909,0.109008789999962
-85.0309906,-121.44013214,0.109008789999962
-85.0100708,-121.41893005,0.109008789999962
-85.01586151,-121.42189026,0.109008789999962
-85.00942993,-121.42063141,0.109008789999962
-85.0428772,-121.43377686,0.109008789999962
-85.00773621,-121.35355377,0.109008789999962
-85.02619171,-121.3572464,0.109375
-85.01026917,-121.41644287,0.109375
-85.00229645,-121.36440277,0.109497070000089
-85.03633118,-121.4458313,0.109497070000089
-85.01232147,-121.42108917,0.109497070000089
-85.01602173,-121.36222076,0.10961913999995
-85.03804779,-121.43669128,0.10961913999995
-85.03153992,-121.42540741,0.109863280000127
-85.03708649,-121.42015839,0.109985349999988
-85.03421021,-121.42228699,0.109985349999988
-85.02726746,-121.35006714,0.109985349999988
-85.00576019,-121.41999817,0.109985349999988
-85.02181244,-121.36544037,0.110107420000077
-85.01908112,-121.40033722,0.110107420000077
-85.00721741,-121.42047119,0.110107420000077
-85.03234863,-121.44252014,0.110229489999938
-85.02613831,-121.43525696,0.110229489999938
-85.03912354,-121.4299469,0.110351560000026
-85.01473236,-121.35661316,0.110473630000115
-85.00836182,-121.38043976,0.110473630000115
-85.01637268,-121.38709259,0.110595699999976
-85.00805664,-121.3585968,0.110595699999976
-85.00457764,-121.36785889,0.110595699999976
-85.02687836,-121.41625977,0.110595699999976
-85.00124359,-121.41374207,0.110595699999976
-85.03762817,-121.4276886,0.110717770000065
-85.04141998,-121.44223022,0.110717770000065
-85.01727295,-121.42378235,0.110717770000065
-85.02735901,-121.4135437,0.110839839999926
-85.01907349,-121.39759064,0.110839839999926
-85.00167847,-121.36071777,0.110839839999926
-85.04937744,-121.4265213,0.110961910000015
-85.01013947,-121.38034058,0.110961910000015
-85.00858307,-121.41959381,0.111083980000103
-85.04058075,-121.44669342,0.111206049999964
-85.01473236,-121.36013794,0.111206049999964
-85.02596283,-121.42617035,0.111206049999964
-85.04363251,-121.43203735,0.111328120000053
-85.0217514,-121.39555359,0.111328120000053
-85.03160095,-121.42366028,0.111328120000053
-85.02446747,-121.35439301,0.111450190000141
-85.01914978,-121.35968781,0.111572260000003
-85.04084015,-121.40628815,0.111572260000003
-85.01141357,-121.35787201,0.111572260000003
-85.00634766,-121.36801147,0.111572260000003
-85.03640747,-121.44561005,0.111572260000003
-85.00393677,-121.41822815,0.111694339999985
-85.00727081,-121.42050171,0.111816410000074
-85.01013184,-121.35279083,0.111816410000074
-85.02288818,-121.35558319,0.111938479999935
-85.01856995,-121.35443115,0.111938479999935
-85.04083252,-121.43209076,0.111938479999935
-85.01618195,-121.3835907,0.111938479999935
-85.03903961,-121.42223358,0.112060550000024
-85.03173065,-121.35169983,0.112060550000024
-85.02052307,-121.35709381,0.112060550000024
-85.03128815,-121.44069672,0.112060550000024
-85.00009918,-121.40013123,0.112182620000112
-85.03140259,-121.42015076,0.112182620000112
-85.03675842,-121.43186188,0.112304689999974
-85.02216339,-121.42919922,0.112304689999974
-85.010849,-121.38141632,0.112426760000062
-85.00875092,-121.42803955,0.112426760000062
-85.03677368,-121.42115021,0.112548830000151
-85.03975677,-121.42819977,0.112548830000151
-85.00141907,-121.35793304,0.112548830000151
-85.02755737,-121.35388947,0.112670900000012
-85.00366211,-121.35150909,0.112670900000012
-85.00920105,-121.35878754,0.112670900000012
-85.0369873,-121.42912292,0.1127929700001
-85.03601074,-121.44484711,0.1127929700001
-85.04084015,-121.44724274,0.112915039999962
-85.03954315,-121.44789124,0.112915039999962
-85.00904846,-121.35645294,0.112915039999962
-85.041008,-121.4387207,0.11303711000005
-85.01821136,-121.3870163,0.11303711000005
-85.01580048,-121.39209747,0.11303711000005
-85.04637909,-121.42935181,0.113159180000139
-85.02120209,-121.36167908,0.113159180000139
-85.00991058,-121.35527039,0.113159180000139
-85.03983307,-121.4283905,0.113159180000139
-85.01815033,-121.36219025,0.11328125
-85.01300812,-121.35726929,0.11328125
-85.00509644,-121.41358185,0.11328125
-85.00595856,-121.41867065,0.113403320000089
-85.00621796,-121.42169952,0.113403320000089
-85.00093079,-121.3732605,0.113403320000089
-85.04371643,-121.44596863,0.11352538999995
-85.02339172,-121.35311127,0.113647460000038
-85.02384949,-121.35688019,0.113647460000038
-85.0304718,-121.35237885,0.113769530000127
-85.02542114,-121.40740967,0.113769530000127
-85.01334381,-121.38539124,0.113769530000127
-85.00372314,-121.36080933,0.113769530000127
-85.02687836,-121.43360901,0.113769530000127
-85.00440216,-121.4265213,0.113769530000127
-85.03257751,-121.42768097,0.113891599999988
-85.04000854,-121.44869232,0.114135739999938
-85.04151154,-121.43927765,0.114257810000026
-85.02203369,-121.39962769,0.114257810000026
-85.00328064,-121.4019165,0.114257810000026
-85.0240097,-121.42671204,0.114257810000026
-85.03730011,-121.35192871,0.114379880000115
-85.02677155,-121.35511017,0.114379880000115
-85.01315308,-121.38162994,0.114379880000115
-85.01983643,-121.38918304,0.114501949999976
-85.03101349,-121.41638947,0.114501949999976
-85.01734924,-121.42108154,0.114501949999976
-85.00849915,-121.42514801,0.114501949999976
-85.03616333,-121.42758179,0.114624020000065
-85.03898621,-121.42212677,0.114868160000015
-85.00479126,-121.35700226,0.114868160000015
-85.02101135,-121.3551712,0.114990230000103
-85.01991272,-121.35959625,0.114990230000103
-85.00707245,-121.35056305,0.114990230000103
-85.00733948,-121.36637878,0.114990230000103
-85.03382874,-121.44145203,0.114990230000103
-85.02957916,-121.43811035,0.115112299999964
-85.01780701,-121.36443329,0.115234370000053
-85.00891876,-121.36550903,0.115234370000053
-85.00556946,-121.41790771,0.115234370000053
-85.01493073,-121.37851715,0.115356440000141
-85.01763916,-121.38877106,0.115356440000141
-85.0422287,-121.443367,0.115478510000003
-85.03910065,-121.43209076,0.115478510000003
-85.02294922,-121.43006897,0.115478510000003
-85.00502777,-121.42305756,0.115478510000003
-85.02809143,-121.3547287,0.115600589999985
-85.01560974,-121.42121124,0.115600589999985
-85.0459137,-121.43087769,0.115722660000074
-85.01863098,-121.36026001,0.115722660000074
-85.00092316,-121.40702057,0.115722660000074
-85.03462982,-121.42195892,0.115722660000074
-85.04488373,-121.42688751,0.115722660000074
-85.04548645,-121.43847656,0.115722660000074
-85.01654816,-121.36083221,0.115844729999935
-85.03952789,-121.4370575,0.115844729999935
-85.04248047,-121.44991302,0.115844729999935
-85.03900146,-121.4307785,0.115966800000024
-85.04290009,-121.44142151,0.115966800000024
-85.01441193,-121.35968018,0.115966800000024
-85.00785065,-121.42436981,0.115966800000024
-85.01371765,-121.36319733,0.116088870000112
-85.01895142,-121.38511658,0.116088870000112
-85.01161194,-121.36672974,0.116088870000112
-85.03604889,-121.44239044,0.116088870000112
-85.01519012,-121.37554932,0.116333010000062
-85.00479126,-121.35977173,0.116333010000062
-85.04096985,-121.44378662,0.116455080000151
-85.01988983,-121.39572906,0.116455080000151
-85.006073,-121.41847229,0.116455080000151
-85.02549744,-121.35930634,0.116577150000012
-85.03166199,-121.43778992,0.116577150000012
-85.02519989,-121.43376923,0.116577150000012
-85.03279877,-121.42756653,0.116577150000012
-85.01985931,-121.38018036,0.1166992200001
-85.02165985,-121.38609314,0.1166992200001
-85.02033997,-121.39325714,0.1166992200001
-85.02832031,-121.42534637,0.1166992200001
-85.00389099,-121.42933655,0.1166992200001
-85.01625061,-121.35907745,0.116821289999962
-85.03031921,-121.43894196,0.116821289999962
-85.02031708,-121.42887878,0.116821289999962
-85.00523376,-121.42292023,0.116821289999962
-85.04853821,-121.44399261,0.116821289999962
-85.04051971,-121.35346985,0.11694336000005
-85.02523804,-121.39491272,0.11694336000005
-85.00022125,-121.40045929,0.11694336000005
-85.02233124,-121.35678101,0.117065430000139
-85.02041626,-121.35389709,0.117065430000139
-85.01342773,-121.37918091,0.117065430000139
-85.02947998,-121.39849854,0.117065430000139
-85.04186249,-121.44235992,0.1171875
-85.0195694,-121.36161041,0.1171875
-85.02236938,-121.39969635,0.117309570000089
-85.00959778,-121.35555267,0.117309570000089
-85.04139709,-121.35204315,0.11743163999995
-85.03131104,-121.41696167,0.11743163999995
-85.02796936,-121.35700989,0.117553710000038
-85.02667236,-121.35765839,0.117553710000038
-85.04181671,-121.43830109,0.117675780000127
-85.03292084,-121.42211151,0.117797849999988
-85.02459717,-121.4355011,0.117797849999988
-85.00744629,-121.42385864,0.117797849999988
-85.04167175,-121.44512177,0.117919920000077
-85.04075623,-121.447052,0.117919920000077
-85.0210495,-121.39108276,0.117919920000077
-85.03479004,-121.44006348,0.117919920000077
-85.02816772,-121.43804169,0.117919920000077
-85.03018951,-121.35443115,0.118041989999938
-85.0391922,-121.42228699,0.118041989999938
-85.03037262,-121.43569946,0.118164060000026
-85.01740265,-121.36094666,0.118286130000115
-85.0031662,-121.40498352,0.118286130000115
-85.00454712,-121.41612244,0.118286130000115
-85.00402069,-121.35427094,0.118286130000115
-85.02584839,-121.35164642,0.118408199999976
-85.03302765,-121.35366058,0.118408199999976
-85.02398682,-121.35695648,0.118408199999976
-85.02095032,-121.36373901,0.118408199999976
-85.01924133,-121.37915802,0.118408199999976
-85.01049042,-121.35314178,0.118408199999976
-85.03917694,-121.43540192,0.118408199999976
-85.02928925,-121.35662079,0.118530270000065
-85.02748871,-121.39234924,0.118530270000065
-85.01338959,-121.36418915,0.118652339999926
-85.0292511,-121.43737793,0.118652339999926
-85.03987885,-121.43946838,0.118774410000015
-85.01100922,-121.41713715,0.118774410000015
-85.02909088,-121.39774323,0.118896480000103
-85.03681946,-121.4432373,0.118896480000103
-85.04260254,-121.44972229,0.119018549999964
-85.02778625,-121.35675812,0.119018549999964
-85.03684235,-121.44625854,0.119018549999964
-85.00263977,-121.41848755,0.119018549999964
-85.02306366,-121.39150238,0.119140620000053
-85.03518677,-121.4258194,0.119140620000053
-85.00794983,-121.42443085,0.119262690000141
-85.04437256,-121.44960785,0.119262690000141
-85.03733826,-121.41118622,0.119384760000003
-85.02397919,-121.43447113,0.119384760000003
-85.02005005,-121.35967255,0.119506839999985
-85.0324173,-121.40026855,0.119506839999985
-85.00299072,-121.35005951,0.119628910000074
-85.01931,-121.38845825,0.119750979999935
-85.01032257,-121.35263824,0.119873050000024
-85.04032898,-121.43367004,0.119995120000112
-85.01454163,-121.37590027,0.120117189999974
-85.02098083,-121.3640213,0.120117189999974
-85.02129364,-121.37934113,0.120117189999974
-85.01193237,-121.36431122,0.120117189999974
-85.04237366,-121.44345093,0.120117189999974
-85.04042053,-121.44905853,0.120117189999974
-85.03901672,-121.43491364,0.120117189999974
-85.04945374,-121.44348907,0.120117189999974
-85.00765228,-121.35610199,0.120117189999974
-85.00917053,-121.35375977,0.120239260000062
-85.01455688,-121.36004639,0.120239260000062
-85.01522064,-121.35755157,0.120239260000062
-85.02226257,-121.40223694,0.120239260000062
-85.01194,-121.41873932,0.120239260000062
-85.00401306,-121.35414886,0.120361330000151
-85.02999115,-121.43820953,0.120361330000151
-85.04612732,-121.35221863,0.120483400000012
-85.03421783,-121.35202026,0.120483400000012
-85.02562714,-121.35186005,0.1206054700001
-85.00444031,-121.36724091,0.1206054700001
-85.02826691,-121.44109344,0.1206054700001
-85.02101135,-121.35751343,0.120727539999962
-85.02021027,-121.43193054,0.120727539999962
-85.03825378,-121.44815063,0.120727539999962
-85.01789093,-121.42539978,0.120727539999962
-85.03025055,-121.4414978,0.12084961000005
-85.00460815,-121.3613205,0.120971680000139
-85.0399704,-121.44553375,0.120971680000139
-85.01029968,-121.35253906,0.120971680000139
-85.02587128,-121.35639191,0.12109375
-85.02091217,-121.38786316,0.121215820000089
-85.00547791,-121.35951996,0.12133788999995
-85.04131317,-121.44464111,0.121459960000038
-85.03292847,-121.44273376,0.121459960000038
-85.04374695,-121.44557953,0.121582030000127
-85.04373169,-121.35604858,0.121582030000127
-85.03025055,-121.39687347,0.121582030000127
-85.02364349,-121.4043808,0.121582030000127
-85.03247833,-121.35240936,0.121704099999988
-85.02385712,-121.35674286,0.121704099999988
-85.00669098,-121.37094116,0.121704099999988
-85.00509644,-121.37207031,0.121704099999988
-85.03079987,-121.41873932,0.121704099999988
-85.03726959,-121.43228912,0.121704099999988
-85.02851105,-121.4416275,0.121826170000077
-85.01023865,-121.41861725,0.121826170000077
-85.003479,-121.3571701,0.121948239999938
-85.01550293,-121.35784912,0.121948239999938
-85.04463196,-121.35437012,0.122070310000026
-85.03862762,-121.43115234,0.122192380000115
-85.01448059,-121.35973358,0.122314449999976
-85.00910187,-121.35874939,0.122314449999976
-85.03865051,-121.35389709,0.122314449999976
-85.02722931,-121.3555069,0.122314449999976
-85.02047729,-121.43222809,0.122314449999976
-85.01896667,-121.43235779,0.122314449999976
-85.01532745,-121.36988068,0.122436520000065
-85.03829193,-121.44843292,0.122436520000065
-85.0411377,-121.44413757,0.122680660000015
-85.02037048,-121.36000061,0.122680660000015
-85.01403809,-121.36045074,0.122680660000015
-85.03630066,-121.44828033,0.122802730000103
-85.03957367,-121.43627167,0.122924799999964
-85.00714111,-121.3752594,0.122924799999964
-85.02719879,-121.44280243,0.122924799999964
-85.02028656,-121.4246521,0.122924799999964
-85.0415802,-121.44193268,0.123168940000141
-85.0223999,-121.35990906,0.123168940000141
-85.01998901,-121.35552979,0.123168940000141
-85.00998688,-121.38362122,0.123291010000003
-85.02570343,-121.40756989,0.123291010000003
-85.01486206,-121.35114288,0.123291010000003
-85.00422668,-121.35691071,0.123291010000003
-85.0426712,-121.35424042,0.123413089999985
-85.02092743,-121.37886047,0.123413089999985
-85.0379715,-121.43361664,0.123413089999985
-85.03366852,-121.44682312,0.123413089999985
-85.00888062,-121.35720062,0.123535160000074
-85.02567291,-121.4048233,0.123535160000074
-85.00203705,-121.36057281,0.123535160000074
-85.03627014,-121.3527298,0.123657229999935
-85.01731873,-121.37467194,0.123779300000024
-85.04759979,-121.35237122,0.123779300000024
-85.02326965,-121.35546875,0.123779300000024
-85.01399994,-121.3552475,0.123779300000024
-85.04315186,-121.4300766,0.123779300000024
-85.01074982,-121.38082886,0.123901370000112
-85.03283691,-121.41918182,0.123901370000112
-85.02477264,-121.35523224,0.124023439999974
-85.04363251,-121.44812012,0.124023439999974
-85.0236969,-121.39814758,0.124023439999974
-85.04393005,-121.43296814,0.124023439999974
-85.01209259,-121.38391876,0.124145510000062
-85.0402832,-121.44609833,0.124145510000062
-85.01445007,-121.35965729,0.124267580000151
-85.00917053,-121.35637665,0.124389650000012
-85.03556824,-121.42617035,0.124389650000012
-85.02462769,-121.3543396,0.1245117200001
-85.03887177,-121.42893982,0.1245117200001
-85.01815033,-121.43408203,0.1245117200001
-85.00878906,-121.37416077,0.124633789999962
-85.0272522,-121.44283295,0.124633789999962
-85.03153992,-121.41056061,0.12475586000005
-85.00476074,-121.36482239,0.124877930000139
-85.04601288,-121.35180664,0.125
-85.03038788,-121.44458008,0.125
-85.04017639,-121.44294739,0.125122070000089
-85.03623962,-121.43074799,0.125122070000089
-85.04089355,-121.42584991,0.12524413999995
-85.04184723,-121.44248199,0.12524413999995
-85.03105164,-121.35285187,0.12524413999995
-85.01516724,-121.3568573,0.12524413999995
-85.0463028,-121.35028839,0.125366210000038
-85.03983307,-121.4330368,0.125366210000038
-85.02192688,-121.39250946,0.125366210000038
-85.01293182,-121.35449219,0.125366210000038
-85.04296875,-121.44107056,0.125488280000127
-85.03687286,-121.4227829,0.125488280000127
-85.0414505,-121.44772339,0.125610349999988
-85.02619934,-121.35398102,0.125610349999988
-85.0219574,-121.43715668,0.125610349999988
-85.04414368,-121.44869232,0.125732420000077
-85.02306366,-121.40062714,0.125732420000077
-85.00031281,-121.35469818,0.125732420000077
-85.03835297,-121.44571686,0.125732420000077
-85.02729797,-121.35281372,0.125854489999938
-85.00634766,-121.36094666,0.125854489999938
-85.03019714,-121.44734192,0.125976560000026
-85.02552795,-121.35394287,0.125976560000026
-85.02342224,-121.42653656,0.125976560000026
-85.00923157,-121.38623047,0.126098630000115
-85.04178619,-121.43070221,0.126098630000115
-85.01400757,-121.36038208,0.126220699999976
-85.04270172,-121.44161987,0.126342770000065
-85.0297699,-121.353508,0.126342770000065
-85.02448273,-121.35385132,0.126464839999926
-85.00878143,-121.3621521,0.126586910000015
-85.03827667,-121.42767334,0.126586910000015
-85.02778625,-121.35144043,0.126708980000103
-85.00235748,-121.36090088,0.126708980000103
-85.03736115,-121.41706848,0.126708980000103
-85.00505066,-121.3655777,0.126708980000103
-85.00026703,-121.376297,0.126831049999964
-85.04073334,-121.42536163,0.126831049999964
-85.0224762,-121.3539505,0.126831049999964
-85.02384949,-121.36209106,0.126831049999964
-85.01847839,-121.35690308,0.126831049999964
-85.04322815,-121.35482788,0.126953120000053
-85.03833008,-121.43044281,0.126953120000053
-85.04723358,-121.35189056,0.127075190000141
-85.04302216,-121.44109344,0.127197260000003
-85.02754974,-121.35334778,0.127197260000003
-85.0206604,-121.43506622,0.127197260000003
-85.00363159,-121.37404633,0.127319339999985
-85.04086304,-121.44017029,0.127319339999985
-85.01322937,-121.35372925,0.127319339999985
-85.0255127,-121.35111237,0.127319339999985
-85.03929138,-121.44406891,0.127441410000074
-85.02021027,-121.38964844,0.127441410000074
-85.03486633,-121.44271088,0.127441410000074
-85.04496765,-121.42920685,0.127563479999935
-85.00395203,-121.35701752,0.127563479999935
-85.02800751,-121.44393158,0.127563479999935
-85.00711823,-121.35601044,0.127685550000024
-85.04174805,-121.44476318,0.127685550000024
-85.02558899,-121.35295868,0.127685550000024
-85.01454926,-121.35308838,0.127807620000112
-85.04251862,-121.42852783,0.127929689999974
-85.01010895,-121.38316345,0.128051760000062
-85.04483795,-121.44702148,0.128051760000062
-85.03852081,-121.42520142,0.128051760000062
-85.03328705,-121.43757629,0.128051760000062
-85.03318024,-121.4486084,0.128051760000062
-85.01316071,-121.37203979,0.128173830000151
-85.04036713,-121.4336319,0.128173830000151
-85.00923157,-121.35066986,0.128173830000151
-85.03542328,-121.42321014,0.128173830000151
-85.03669739,-121.41327667,0.128295900000012
-85.03912354,-121.44657135,0.1284179700001
-85.01763153,-121.35559845,0.1284179700001
-85.01399994,-121.37638092,0.1284179700001
-85.04548645,-121.44532013,0.128540039999962
-85.00240326,-121.35791779,0.128540039999962
-85.04248047,-121.4431076,0.12866211000005
-85.03761292,-121.44996643,0.12866211000005
-85.03009033,-121.3525238,0.12866211000005
-85.0442276,-121.4487381,0.128784180000139
-85.01283264,-121.35296631,0.128784180000139
-85.00627136,-121.36810303,0.128784180000139
-85.02169037,-121.36641693,0.12890625
-85.03491974,-121.44274139,0.12890625
-85.01181793,-121.36096954,0.12890625
-85.01146698,-121.37006378,0.129028320000089
-85.02134705,-121.3884964,0.129028320000089
-85.03005981,-121.44712067,0.129028320000089
-85.02741241,-121.35218048,0.12915038999995
-85.04139709,-121.4379425,0.12915038999995
-85.04440308,-121.35369873,0.12915038999995
-85.00131989,-121.36424255,0.129272460000038
-85.04444122,-121.44625092,0.129272460000038
-85.0145874,-121.3531189,0.129272460000038
-85.04392242,-121.43041229,0.129394530000127
-85.00756836,-121.41726685,0.129394530000127
-85.04836273,-121.43827057,0.129638670000077
-85.03656769,-121.42507172,0.129638670000077
-85.03623199,-121.43908691,0.129638670000077
-85.04000092,-121.35236359,0.129760739999938
-85.03920746,-121.41700745,0.129760739999938
-85.0105896,-121.36398315,0.129760739999938
-85.01360321,-121.42376709,0.129882810000026
-85.04270935,-121.43611908,0.129882810000026
-85.00656128,-121.37104034,0.130004880000115
-85.03569031,-121.42050171,0.130004880000115
-85.04605103,-121.43218994,0.130004880000115
-85.03515625,-121.35349274,0.130126949999976
-85.03658295,-121.41555023,0.130126949999976
-85.04158783,-121.44779968,0.130371089999926
-85.03672028,-121.35286713,0.130371089999926
-85.02059174,-121.35385132,0.130371089999926
-85.02809906,-121.39582825,0.130371089999926
-85.00624847,-121.36074829,0.130371089999926
-85.03618622,-121.42706299,0.130371089999926
-85.03607178,-121.4446106,0.130371089999926
-85.00756073,-121.37464905,0.130493160000015
-85.02702332,-121.3551178,0.130615230000103
-85.01808167,-121.4309082,0.130615230000103
-85.02156067,-121.36585999,0.130859370000053
-85.02877808,-121.44503784,0.130859370000053
-85.04177856,-121.43930054,0.130981440000141
-85.00726318,-121.40151215,0.131103510000003
-85.03861237,-121.42526245,0.131103510000003
-85.03752136,-121.42642212,0.131103510000003
-85.03302002,-121.44863892,0.131103510000003
-85.00518799,-121.4131012,0.131103510000003
-85.03479767,-121.40664673,0.131225589999985
-85.03990936,-121.41834259,0.131225589999985
-85.02256775,-121.43804169,0.131347660000074
-85.03749847,-121.4171524,0.131469729999935
-85.00598907,-121.43141174,0.131469729999935
-85.02062225,-121.35388184,0.131591800000024
-85.04472351,-121.35050964,0.131713870000112
-85.03759003,-121.42894745,0.131835939999974
-85.00359344,-121.36878204,0.131835939999974
-85.03665161,-121.41858673,0.131958010000062
-85.03652954,-121.35288239,0.132080080000151
-85.00496674,-121.3586731,0.132202150000012
-85.01040649,-121.39954376,0.1323242200001
-85.0282135,-121.35974884,0.1323242200001
-85.02520752,-121.35276794,0.132446289999962
-85.02680969,-121.44190216,0.132446289999962
-85.04524231,-121.42922974,0.132446289999962
-85.02207947,-121.35466766,0.132446289999962
-85.0296936,-121.35059357,0.13256836000005
-85.00386047,-121.41150665,0.13256836000005
-85.04019928,-121.42163849,0.13256836000005
-85.01074982,-121.38028717,0.132690430000139
-85.03193665,-121.39891815,0.132690430000139
-85.01334381,-121.35131073,0.1328125
-85.03894043,-121.4345932,0.132934570000089
-85.00524139,-121.36260223,0.132934570000089
-85.03875732,-121.35031128,0.13305663999995
-85.0139389,-121.42710876,0.13305663999995
-85.02597046,-121.35769653,0.133178710000038
-85.03569031,-121.35433197,0.133178710000038
-85.03780365,-121.42046356,0.133178710000038
-85.00779724,-121.3992691,0.133300780000127
-85.03193665,-121.35102844,0.133300780000127
-85.02310944,-121.35485077,0.133300780000127
-85.02951813,-121.35635376,0.133300780000127
-85.01569366,-121.37283325,0.133422849999988
-85.03942108,-121.43186951,0.133422849999988
-85.02040863,-121.43438721,0.133422849999988
-85.02970123,-121.35231018,0.133544920000077
-85.01834106,-121.37429047,0.133544920000077
-85.03600311,-121.42106628,0.133544920000077
-85.04386139,-121.35272217,0.133666989999938
-85.02922821,-121.39219666,0.133666989999938
-85.04180145,-121.42404175,0.133789060000026
-85.04055023,-121.3502121,0.133789060000026
-85.03002167,-121.41433716,0.133789060000026
-85.02056122,-121.36976624,0.133911130000115
-85.03575134,-121.40525818,0.134033199999976
-85.03353882,-121.40785217,0.134033199999976
-85.0186615,-121.43450928,0.134033199999976
-85.02883148,-121.38791656,0.134277339999926
-85.02175903,-121.43025208,0.134277339999926
-85.04296112,-121.42865753,0.134399410000015
-85.02465057,-121.39009857,0.134399410000015
-85.03639984,-121.40355682,0.134521480000103
-85.03263092,-121.44213867,0.134521480000103
-85.02384949,-121.35241699,0.134765620000053
-85.02229309,-121.35630798,0.134765620000053
-85.03845978,-121.41577148,0.134765620000053
-85.00572205,-121.41744995,0.134765620000053
-85.03968048,-121.43241882,0.134887690000141
-85.02310181,-121.43588257,0.134887690000141
-85.00829315,-121.39681244,0.135009760000003
-85.00940704,-121.40219879,0.135009760000003
-85.03089142,-121.400383,0.135009760000003
-85.03672028,-121.42214966,0.135009760000003
-85.0368576,-121.35295105,0.135131839999985
-85.02246857,-121.43759155,0.135131839999985
-85.01033783,-121.38207245,0.135253910000074
-85.03778839,-121.44706726,0.135253910000074
-85.0414505,-121.43231201,0.135375979999935
-85.0463028,-121.43771362,0.135375979999935
-85.02825928,-121.35402679,0.135375979999935
-85.03206635,-121.41752625,0.135375979999935
-85.04625702,-121.43482208,0.135375979999935
-85.03034973,-121.35797119,0.135742189999974
-85.04653931,-121.4347229,0.135742189999974
-85.03939056,-121.42037201,0.135864260000062
-85.00314331,-121.43537903,0.135986330000151
-85.01669312,-121.431633,0.136108400000012
-85.00820923,-121.4214325,0.136108400000012
-85.04116058,-121.44936371,0.136352539999962
-85.02667999,-121.38426971,0.136352539999962
-85.00884247,-121.39459229,0.13647461000005
-85.01944733,-121.35160065,0.13647461000005
-85.02340698,-121.44219971,0.13647461000005
-85.04733276,-121.43234253,0.136596680000139
-85.01490021,-121.41945648,0.136596680000139
-85.02932739,-121.35430145,0.136840820000089
-85.04547119,-121.42964172,0.136840820000089
-85.03028107,-121.35119629,0.136840820000089
-85.0222702,-121.43759918,0.136840820000089
-85.0322876,-121.40579224,0.137084960000038
-85.0127182,-121.42832184,0.137084960000038
-85.00952148,-121.40158081,0.137207030000127
-85.02677155,-121.35443878,0.137207030000127
-85.02314758,-121.38475037,0.137207030000127
-85.03157043,-121.36147308,0.137573239999938
-85.02945709,-121.35240173,0.137573239999938
-85.00559235,-121.35912323,0.137573239999938
-85.02571869,-121.35536957,0.137695310000026
-85.03407288,-121.44104767,0.137695310000026
