"X","Y","Z"
-85.02893829,-121.255867,0.250122070000089
-85.0354538,-121.33621216,0.250122070000089
-85.04599762,-121.26216125,0.250610349999988
-85.01245117,-121.34248352,0.250610349999988
-85.03518677,-121.25579071,0.250976560000026
-85.02475739,-121.25318909,0.251342770000065
-85.04547882,-121.32720947,0.251586910000015
-85.03265381,-121.25666809,0.252197260000003
-85.03182983,-121.2589035,0.252319339999985
-85.0275116,-121.25216675,0.254760739999938
-85.03572845,-121.26094055,0.254882810000026
-85.03201294,-121.33975983,0.256225589999985
-85.03315735,-121.2542572,0.257690430000139
-85.03073883,-121.33711243,0.259887690000141
-85.04823303,-121.2671814,0.260009760000003
-85.04717255,-121.32971191,0.261840820000089
-85.00141144,-121.26756287,0.263305660000015
-85.00697327,-121.27240753,0.265991210000038
-85.00479889,-121.26954651,0.267089839999926
-85.01335907,-121.27474976,0.269653320000089
-85.03884125,-121.25228882,0.269897460000038
-85.04675293,-121.32628632,0.270019530000127
-85.04177856,-121.3338089,0.270385739999938
-85.04975128,-121.3287735,0.270874020000065
-85.0112915,-121.3421936,0.271850589999985
-85.02677917,-121.25279999,0.273071289999962
-85.04241943,-121.2557373,0.275024410000015
-85.04683685,-121.25837708,0.275512690000141
-85.04026794,-121.33674622,0.276000979999935
-85.02503204,-121.33547211,0.2768554700001
-85.01183319,-121.33560181,0.277465820000089
-85.04341888,-121.25493622,0.27758788999995
-85.00686646,-121.34591675,0.27758788999995
-85.02365875,-121.32952881,0.280639650000012
-85.01038361,-121.33605194,0.280639650000012
-85.03395844,-121.33576965,0.280883789999962
-85.04882813,-121.25675201,0.281127930000139
-85.00440979,-121.34092712,0.281982420000077
-85.00618744,-121.33415985,0.285644530000127
-85.01477814,-121.34351349,0.285888670000077
-85.04827881,-121.25630951,0.286376949999976
-85.04577637,-121.25623322,0.286376949999976
-85.01805115,-121.33094025,0.286621089999926
-85.04718781,-121.25849152,0.287719729999935
-85.0328064,-121.32691956,0.287719729999935
-85.0458374,-121.32597351,0.290771480000103
-85.04824829,-121.25485229,0.292846680000139
-85.04680634,-121.25279236,0.293334960000038
-85.01734161,-121.27429199,0.295410160000074
-85.04221344,-121.32994843,0.301269530000127
-85.00422668,-121.25939941,0.301513670000077
-85.04753876,-121.25052643,0.301757810000026
-85.0477829,-121.25050354,0.302978510000003
-85.00392914,-121.2603302,0.303344729999935
-85.04316711,-121.32969666,0.304565430000139
-85.0089798,-121.2661972,0.304809570000089
-85.01318359,-121.26754761,0.306152339999926
-85.01074982,-121.26439667,0.3081054700001
-85.00901794,-121.26358032,0.308471680000139
-85.00731659,-121.34224701,0.311279300000024
-85.00948334,-121.26373291,0.31225586000005
-85.04033661,-121.32697296,0.312988280000127
-85.02658844,-121.27574921,0.313598630000115
-85.04489899,-121.32279968,0.313964839999926
-85.02703094,-121.2772522,0.314208980000103
-85.00086212,-121.25834656,0.315063479999935
-85.04659271,-121.25205994,0.315307620000112
-85.01312256,-121.26570129,0.31665038999995
-85.0243988,-121.27256775,0.316772460000038
-85.02218628,-121.27124023,0.316894530000127
-85.00328827,-121.25956726,0.318603510000003
-85.02339172,-121.27192688,0.319946289999962
-85.0089035,-121.26319885,0.320190430000139
-85.03903198,-121.28318024,0.320434570000089
-85.01528931,-121.26689911,0.320434570000089
-85.03894806,-121.28568268,0.32055663999995
-85.00614929,-121.25508118,0.320922849999988
-85.00070953,-121.26088715,0.321533199999976
-85.00466919,-121.25424957,0.321655270000065
-85.02091217,-121.27053833,0.321899410000015
-85.00810242,-121.26410675,0.322021480000103
-85.00624084,-121.34496307,0.323364260000062
-85.00553894,-121.25717926,0.324829099999988
-85.01885986,-121.27059174,0.325805660000015
-85.01291656,-121.26036072,0.326660160000074
-85.00763702,-121.34436798,0.326660160000074
-85.04141235,-121.28455353,0.327026370000112
-85.01143646,-121.25953674,0.327392580000151
-85.02407837,-121.33979797,0.327392580000151
-85.02472687,-121.27423096,0.327514650000012
-85.00919342,-121.25946045,0.3276367200001
-85.00309753,-121.2542572,0.3276367200001
-85.04827118,-121.28874969,0.327758789999962
-85.00917816,-121.25917053,0.328857420000077
-85.001091,-121.25305939,0.331909180000139
-85.00489044,-121.25917816,0.33203125
-85.01481628,-121.26148987,0.33227538999995
-85.02635193,-121.27638245,0.332397460000038
-85.03890228,-121.28278351,0.332763670000077
-85.00717163,-121.25795746,0.333374020000065
-85.01260376,-121.26013184,0.333496089999926
-85.03148651,-121.27950287,0.333740230000103
-85.01374817,-121.26341248,0.333862299999964
-85.04942322,-121.25079346,0.333984370000053
-85.02217102,-121.26593018,0.333984370000053
-85.01622772,-121.26345825,0.334838870000112
-85.02307892,-121.26761627,0.336791989999938
-85.01792908,-121.26445007,0.336914060000026
-85.0114212,-121.26419067,0.338378910000074
-85.016922,-121.26383972,0.339111330000151
-85.04855347,-121.33628082,0.339233400000012
-85.02519989,-121.27030945,0.340942380000115
-85.02348328,-121.26924133,0.341064449999976
-85.01194763,-121.34603119,0.341186520000065
-85.0219574,-121.26969147,0.341308589999926
-85.04830933,-121.25122833,0.342529300000024
-85.02277374,-121.26741028,0.343017580000151
-85.0480423,-121.2511673,0.34399413999995
-85.02245331,-121.26854706,0.346069339999985
-85.03224945,-121.27459717,0.346923830000151
