"X","Y","Z"
-84.83815765,-121.49265289,0.250244140000177
-84.84925079,-121.49500275,0.250366210000038
-84.83418274,-121.48400116,0.250610350000215
-84.83258057,-121.49494934,0.250732420000077
-84.83760834,-121.4998703,0.251342780000186
-84.83679962,-121.49556732,0.251586920000136
-84.8453064,-121.47956085,0.252075200000036
-84.83821106,-121.49807739,0.252685550000024
-84.83326721,-121.49562836,0.253784180000139
-84.84542084,-121.47548676,0.254028320000089
-84.84342957,-121.48236847,0.255981450000036
-84.8423996,-121.48307037,0.256713870000112
-84.83914185,-121.49871826,0.256958010000062
-84.84414673,-121.48284912,0.257446290000189
-84.84928131,-121.49462128,0.258300780000127
-84.84120178,-121.48071289,0.258667000000059
-84.847229,-121.4796524,0.258911140000009
-84.84934998,-121.49714661,0.259033210000098
-84.84687042,-121.47511292,0.259521490000225
-84.83564758,-121.48757935,0.265014650000012
-84.84542847,-121.47949219,0.265991210000038
-84.83006287,-121.4901123,0.266357420000077
-84.83399963,-121.49891663,0.268676760000062
-84.83299255,-121.49913788,0.268676760000062
-84.84809875,-121.48007965,0.269409180000139
-84.84243774,-121.47712708,0.269775390000177
-84.84162903,-121.4780426,0.272094730000163
-84.83178711,-121.49568176,0.273803710000038
-84.83265686,-121.49195099,0.273925780000127
-84.82662201,-121.49324799,0.274169920000077
-84.84561157,-121.47808838,0.274292000000059
-84.84362793,-121.479599,0.275146490000225
-84.82852173,-121.49577332,0.275512700000036
-84.84898376,-121.49912262,0.276000980000163
-84.8272934,-121.49494934,0.276245120000112
-84.83940887,-121.48330688,0.276977540000189
-84.84677124,-121.49295807,0.278198250000059
-84.83853149,-121.48097992,0.278442390000009
-84.83280945,-121.49355316,0.278686530000186
-84.84951019,-121.49669647,0.279052740000225
-84.84863281,-121.4983902,0.279296880000174
-84.83206177,-121.49298859,0.279663090000213
-84.84857178,-121.48442841,0.279785160000074
-84.842659,-121.48272705,0.279785160000074
-84.8483429,-121.49285889,0.280151370000112
-84.84641266,-121.49822998,0.280151370000112
-84.82958984,-121.49936676,0.281372070000089
-84.83223724,-121.49443054,0.281738280000127
-84.83188629,-121.48990631,0.281860350000215
-84.84667969,-121.49877167,0.281860350000215
-84.84314728,-121.48149109,0.282714850000048
-84.84879303,-121.48432159,0.282836920000136
-84.84320068,-121.49877167,0.282958990000225
-84.84487152,-121.48146057,0.285400390000177
-84.83785248,-121.48197937,0.285400390000177
-84.83616638,-121.48767853,0.285522460000038
-84.8494873,-121.49954987,0.285522460000038
-84.84062195,-121.48011017,0.288208010000062
-84.84529877,-121.49649811,0.288452150000012
-84.84282684,-121.48246765,0.289184570000089
-84.83495331,-121.48526001,0.289428710000038
-84.84964752,-121.49938202,0.290283210000098
-84.8314209,-121.49333954,0.291503910000074
-84.84629822,-121.49787903,0.291625980000163
-84.84432983,-121.48516846,0.292602540000189
-84.84423065,-121.48188019,0.29272461000005
-84.82797241,-121.49091339,0.293579100000215
-84.8452301,-121.49632263,0.293701170000077
-84.84929657,-121.498909,0.294067390000009
-84.83280945,-121.48776245,0.295043950000036
-84.8469696,-121.48435974,0.295288090000213
-84.84802246,-121.4968338,0.295898440000201
-84.84960175,-121.4994812,0.296997070000089
-84.82929993,-121.49482727,0.297241210000038
-84.8431015,-121.48828888,0.299072270000124
-84.83220673,-121.49684906,0.299804690000201
-84.84001923,-121.47904968,0.30078125
-84.83326721,-121.48191833,0.301147460000038
-84.83252716,-121.49430847,0.301269530000127
-84.83084869,-121.49006653,0.306884770000124
-84.8325882,-121.4901123,0.307373050000024
-84.84613037,-121.48703003,0.307373050000024
-84.84593201,-121.49009705,0.308227540000189
-84.84616852,-121.49987793,0.30859375
-84.83380127,-121.4908371,0.309204100000215
-84.82805634,-121.4978714,0.310302740000225
-84.84356689,-121.498703,0.310791020000124
-84.84555054,-121.49610901,0.311523440000201
-84.8275528,-121.49754333,0.312377930000139
-84.82884216,-121.49526215,0.314453130000174
-84.84139252,-121.48213959,0.314453130000174
-84.84207153,-121.48040771,0.314941410000074
-84.84381866,-121.48045349,0.315185550000024
-84.84088898,-121.49465942,0.316040040000189
-84.83032227,-121.49521637,0.317016600000215
-84.84626007,-121.49619293,0.317016600000215
-84.83026886,-121.49645233,0.317871100000048
-84.84149933,-121.48126984,0.318725590000213
-84.83040619,-121.48390198,0.318969730000163
-84.83226013,-121.4884491,0.319335940000201
-84.84599304,-121.49617004,0.3198242200001
-84.8350296,-121.48090363,0.319946290000189
-84.84262085,-121.48500824,0.32006836000005
-84.84036255,-121.48219299,0.320434570000089
-84.84338379,-121.48397827,0.321777350000048
-84.83563232,-121.49920654,0.322753910000074
-84.84667206,-121.49990082,0.324951170000077
-84.84255981,-121.48484039,0.325317390000009
