"X","Y","Z"
-84.94918823,-121.3661499,0.0134277400002247
-84.94895935,-121.35897827,0.0148925800001507
-84.93810272,-121.35585022,0.0153808600000502
-84.94963074,-121.36469269,0.015625
-84.94830322,-121.35217285,0.0161132800001269
-84.93955994,-121.35066223,0.0162353500002155
-84.93399811,-121.36200714,0.0167236400000093
-84.94004059,-121.35413361,0.0173339900002247
-84.93771362,-121.35655975,0.0173339900002247
-84.92929077,-121.35378265,0.0174560600000859
-84.9489212,-121.35887909,0.0175781300001745
-84.94934845,-121.36466217,0.0178222700001243
-84.93228912,-121.35874939,0.0178222700001243
-84.92434692,-121.35185242,0.018066410000074
-84.92749023,-121.36295319,0.0184326200001124
-84.93531036,-121.35733032,0.0186767600000621
-84.92225647,-121.35426331,0.0189209000000119
-84.94207001,-121.35263824,0.0190429700001005
-84.93274689,-121.35459137,0.0190429700001005
-84.92983246,-121.35920715,0.019165040000189
-84.94267273,-121.35716248,0.019165040000189
-84.92854309,-121.36121368,0.019165040000189
-84.94956207,-121.40345764,0.0192871100000502
-84.92481995,-121.35207367,0.0194091800001388
-84.9405365,-121.40351105,0.01953125
-84.93408203,-121.36763,0.0197753900001771
-84.9447403,-121.40569305,0.0200195300001269
-84.93231201,-121.35890961,0.0201416000002155
-84.93000031,-121.3542099,0.0202636700000767
-84.93179321,-121.37654114,0.0202636700000767
-84.92550659,-121.35381317,0.0203857500000595
-84.93070984,-121.35614777,0.0207519600000978
-84.9240799,-121.35497284,0.0208740300001864
-84.94278717,-121.35311127,0.0208740300001864
-84.92378998,-121.35273743,0.0208740300001864
-84.94512939,-121.36286163,0.0209961000000476
-84.94844818,-121.36779785,0.0209961000000476
-84.93444061,-121.35582733,0.0211181700001362
-84.92553711,-121.35253906,0.0211181700001362
-84.94806671,-121.40086365,0.0211181700001362
-84.94013977,-121.40274811,0.0211181700001362
-84.92447662,-121.35449982,0.0212402400002247
-84.94431305,-121.40408325,0.0212402400002247
-84.92996979,-121.37818909,0.0214843800001745
-84.93509674,-121.40962982,0.0216064500000357
-84.94618225,-121.36798096,0.0217285200001243
-84.94405365,-121.35897064,0.0218505900002128
-84.92729187,-121.35231781,0.0218505900002128
-84.92662811,-121.35730743,0.0218505900002128
-84.92363739,-121.36396027,0.021972660000074
-84.92320251,-121.35494232,0.021972660000074
-84.93766022,-121.35639954,0.0220947300001626
-84.93641663,-121.40898895,0.0220947300001626
-84.94241333,-121.40619659,0.0222168000000238
-84.93202209,-121.35147858,0.0223388700001124
-84.94550323,-121.3536377,0.0223388700001124
-84.94685364,-121.35843658,0.0223388700001124
-84.92249298,-121.37716675,0.0224609400002009
-84.94918823,-121.36528015,0.0225830100000621
-84.93356323,-121.37502289,0.0227050800001507
-84.94567871,-121.39994812,0.0227050800001507
-84.94023895,-121.41027069,0.0228271500000119
-84.92411804,-121.37123108,0.0229492200001005
-84.93592072,-121.37934113,0.023071290000189
-84.93469238,-121.40911865,0.023071290000189
-84.94477844,-121.39562225,0.0233154300001388
-84.93736267,-121.35759735,0.0234375
-84.92906952,-121.36659241,0.0234375
-84.94677734,-121.36599731,0.0235595700000886
-84.9475708,-121.3589325,0.0235595700000886
-84.91448212,-121.37687683,0.0235595700000886
-84.93668365,-121.40953064,0.0235595700000886
-84.92121124,-121.3572464,0.0236816400001771
-84.93553925,-121.40167236,0.0236816400001771
-84.94455719,-121.36517334,0.0238037100000383
-84.94394684,-121.40007782,0.0240478500002155
-84.92415619,-121.35540009,0.0241699200000767
-84.94821167,-121.40995026,0.0241699200000767
-84.9284668,-121.40563965,0.0241699200000767
-84.92938232,-121.38008881,0.0242920000000595
-84.92828369,-121.40812683,0.0242920000000595
-84.93409729,-121.38098907,0.0244140700001481
-84.94927979,-121.39949799,0.0244140700001481
-84.92481232,-121.36846924,0.0246582100000978
-84.92680359,-121.35871887,0.0246582100000978
-84.93464661,-121.35571289,0.0247802800001864
-84.94677734,-121.35961151,0.0249023500000476
-84.93740845,-121.37908173,0.0249023500000476
-84.94239044,-121.3946991,0.0249023500000476
-84.93100739,-121.41513062,0.0249023500000476
-84.94091797,-121.40712738,0.0250244200001362
-84.93673706,-121.40930939,0.0250244200001362
-84.93627167,-121.40249634,0.0251464900002247
-84.93553162,-121.375,0.0252685600000859
-84.9376297,-121.40763092,0.0252685600000859
-84.91412354,-121.39531708,0.0253906300001745
-84.93321991,-121.40953827,0.0253906300001745
-84.92923737,-121.35295105,0.0256347700001243
-84.91539764,-121.37859344,0.0256347700001243
-84.94795227,-121.36924744,0.0257568400002128
-84.93071747,-121.35305786,0.0257568400002128
-84.94625854,-121.36728668,0.025878910000074
-84.92578125,-121.35114288,0.025878910000074
-84.9020462,-121.3736496,0.025878910000074
-84.92942047,-121.40699005,0.025878910000074
-84.90673828,-121.37554932,0.0260009800001626
-84.94686127,-121.39582062,0.0260009800001626
-84.94467926,-121.40442657,0.0261230500000238
-84.94741821,-121.41117096,0.0262451200001124
-84.94496918,-121.35743713,0.0262451200001124
-84.91191864,-121.37770081,0.0263671900002009
-84.9382019,-121.3911438,0.0263671900002009
-84.93173218,-121.36833191,0.0264892600000621
-84.91959381,-121.38020325,0.0264892600000621
-84.94007111,-121.40583038,0.0264892600000621
-84.9332962,-121.41858673,0.0264892600000621
-84.93695068,-121.37700653,0.0266113300001507
-84.92530823,-121.38137817,0.0266113300001507
-84.94152832,-121.35929871,0.0267334000000119
-84.94341278,-121.36836243,0.0268554700001005
-84.92449188,-121.36946869,0.0268554700001005
-84.94348907,-121.36019135,0.0268554700001005
-84.93766022,-121.4046402,0.0268554700001005
-84.94615173,-121.35527039,0.026977540000189
-84.91834259,-121.40161896,0.026977540000189
-84.91678619,-121.35572815,0.0270996100000502
-84.92378235,-121.38207245,0.0270996100000502
-84.9330368,-121.41255951,0.0270996100000502
-84.90451813,-121.38899994,0.0270996100000502
-84.93096924,-121.38404846,0.0272216800001388
-84.93499756,-121.40670013,0.0272216800001388
-84.94248962,-121.36392975,0.0274658200000886
-84.93958282,-121.3932724,0.0274658200000886
-84.94690704,-121.36556244,0.0275878900001771
-84.91934967,-121.37792206,0.0275878900001771
-84.94917297,-121.39904022,0.0275878900001771
-84.9292984,-121.40926361,0.0275878900001771
-84.93125916,-121.36676788,0.0277099600000383
-84.91855621,-121.38088226,0.0277099600000383
-84.93969727,-121.38455963,0.0278320300001269
-84.92912292,-121.41802979,0.0279541000002155
-84.93418121,-121.38488007,0.0280761700000767
-84.93200684,-121.41651154,0.0280761700000767
-84.94770813,-121.36945343,0.0281982500000595
-84.94078064,-121.35829926,0.0281982500000595
-84.94136047,-121.39317322,0.0281982500000595
-84.9329071,-121.42108917,0.0281982500000595
-84.94425201,-121.3650589,0.0283203200001481
-84.9379425,-121.40493774,0.0283203200001481
-84.93683624,-121.40611267,0.0283203200001481
-84.91433716,-121.37947083,0.0284423900000093
-84.94300842,-121.40434265,0.0284423900000093
-84.94770813,-121.36273193,0.0284423900000093
-84.90711975,-121.378479,0.0285644600000978
-84.90682983,-121.3797226,0.0285644600000978
-84.91348267,-121.40026093,0.0286865300001864
-84.93353271,-121.41011047,0.0286865300001864
-84.90435791,-121.38851166,0.0286865300001864
-84.91770935,-121.39907837,0.0288086000000476
-84.94087219,-121.38657379,0.0289306700001362
-84.909729,-121.38279724,0.0289306700001362
-84.93154144,-121.40995789,0.0289306700001362
-84.93112183,-121.41217804,0.0289306700001362
-84.94255066,-121.36308289,0.0291748100000859
-84.94992065,-121.36157227,0.0291748100000859
-84.93733978,-121.35616302,0.0291748100000859
-84.94918823,-121.39930725,0.0291748100000859
-84.9238205,-121.41262054,0.0291748100000859
-84.94779968,-121.35749817,0.0292968800001745
-84.94864655,-121.36226654,0.0294189500000357
-84.91208649,-121.37911224,0.0294189500000357
-84.92395782,-121.38324738,0.0294189500000357
-84.94106293,-121.36081696,0.0295410200001243
-84.93099213,-121.42046356,0.0295410200001243
-84.93987274,-121.35881042,0.0295410200001243
-84.94770813,-121.36023712,0.0296630900002128
-84.94595337,-121.36042786,0.0296630900002128
-84.91790771,-121.4003067,0.0296630900002128
-84.94230652,-121.39452362,0.0296630900002128
-84.91197205,-121.40065765,0.0296630900002128
-84.93071747,-121.41442108,0.0296630900002128
-84.91600037,-121.40373993,0.029785160000074
-84.94567108,-121.35340118,0.0299072300001626
-84.9156189,-121.3760376,0.0302734400002009
-84.90514374,-121.37711334,0.0302734400002009
-84.91085052,-121.37828827,0.0303955100000621
-84.93881989,-121.39775848,0.0303955100000621
-84.94078827,-121.35556793,0.0303955100000621
-84.90763092,-121.37743378,0.0305175800001507
-84.93005371,-121.41036987,0.0305175800001507
-84.92588806,-121.41555786,0.0305175800001507
-84.9438324,-121.36685181,0.0306396500000119
-84.90956879,-121.3555603,0.0306396500000119
-84.93901062,-121.35098267,0.0307617200001005
-84.94695282,-121.438591,0.0307617200001005
-84.93010712,-121.41941071,0.030883790000189
-84.92077637,-121.37264252,0.0310058600000502
-84.9432373,-121.35878754,0.0310058600000502
-84.93743134,-121.37612152,0.0310058600000502
-84.93968201,-121.35669708,0.0311279300001388
-84.90220642,-121.39138031,0.0311279300001388
-84.94512939,-121.37064362,0.03125
-84.92857361,-121.36357117,0.03125
-84.89959717,-121.40142059,0.03125
-84.94235229,-121.38627625,0.0313720700000886
-84.91944122,-121.39105225,0.0313720700000886
-84.9447937,-121.39549255,0.0313720700000886
-84.94548035,-121.35884857,0.0314941400001771
-84.91847229,-121.38224792,0.0314941400001771
-84.91226959,-121.40071106,0.0314941400001771
-84.91738129,-121.38455963,0.0316162100000383
-84.90397644,-121.38153076,0.0316162100000383
-84.9417572,-121.35771942,0.0317382800001269
-84.9050827,-121.37831116,0.0317382800001269
-84.94033813,-121.39163208,0.0317382800001269
-84.91342163,-121.37413025,0.0318603500002155
-84.94316101,-121.35301208,0.0318603500002155
-84.9302063,-121.35134125,0.0318603500002155
-84.94165039,-121.36621857,0.0319824200000767
-84.94023132,-121.38218689,0.0319824200000767
-84.93338013,-121.40689087,0.0319824200000767
-84.94898987,-121.36470032,0.0321045000000595
-84.93792725,-121.39370728,0.0321045000000595
-84.9046936,-121.39208984,0.0321045000000595
-84.9158783,-121.3822937,0.0322265700001481
-84.93450165,-121.38925934,0.0322265700001481
-84.92453003,-121.40368652,0.0323486400000093
-84.92756653,-121.38677216,0.0325927800001864
-84.93827057,-121.38059998,0.0327148500000476
-84.905159,-121.38352966,0.0327148500000476
-84.91187286,-121.39994049,0.0327148500000476
-84.94114685,-121.35315704,0.0328369200001362
-84.9440918,-121.35501099,0.0329589900002247
-84.92942047,-121.36003876,0.0329589900002247
-84.92304993,-121.40261841,0.0329589900002247
-84.93834686,-121.3780899,0.0330810600000859
-84.92089844,-121.3917923,0.0330810600000859
-84.92752075,-121.41824341,0.0334472700001243
-84.90596008,-121.38153076,0.033691410000074
-84.94148254,-121.38166809,0.0338134800001626
-84.93015289,-121.3525238,0.0339355500000238
-84.91371918,-121.38127136,0.0339355500000238
-84.92114258,-121.38401031,0.0339355500000238
-84.91660309,-121.3928833,0.0339355500000238
-84.94915771,-121.36432648,0.0340576200001124
-84.93691254,-121.39466095,0.0340576200001124
-84.93022919,-121.41921234,0.0340576200001124
-84.93998718,-121.39389801,0.0341796900002009
-84.93858337,-121.36013031,0.0343017600000621
-84.92124176,-121.40426636,0.0343017600000621
-84.94656372,-121.35529327,0.0344238300001507
-84.90898132,-121.38085175,0.0344238300001507
-84.94732666,-121.39949799,0.0344238300001507
-84.90564728,-121.39672089,0.0344238300001507
-84.90344238,-121.40518951,0.0346679700001005
-84.91316223,-121.38404083,0.034790040000189
-84.93556213,-121.35491943,0.034790040000189
-84.94142151,-121.38288879,0.034790040000189
-84.92021179,-121.40473175,0.034790040000189
-84.9400177,-121.35630798,0.0349121100000502
-84.9357605,-121.37219238,0.0349121100000502
-84.91986084,-121.38443756,0.0349121100000502
-84.94090271,-121.39222717,0.0350341800001388
-84.92577362,-121.4156189,0.0350341800001388
-84.90480042,-121.39189911,0.0350341800001388
-84.93171692,-121.35778809,0.03515625
-84.91610718,-121.39231873,0.03515625
-84.89900208,-121.39544678,0.03515625
-84.92073822,-121.4037323,0.0352783200000886
-84.93807983,-121.39627075,0.0352783200000886
-84.92887115,-121.41461182,0.0352783200000886
-84.92333221,-121.41493225,0.0354003900001771
-84.9380188,-121.35381317,0.0355224600000383
-84.93151093,-121.35626221,0.0355224600000383
-84.93971252,-121.38156128,0.0355224600000383
-84.91316223,-121.39045715,0.0355224600000383
-84.9107132,-121.38861847,0.0356445300001269
-84.93482208,-121.35436249,0.0357666000002155
-84.93241882,-121.39032745,0.0357666000002155
-84.94210052,-121.35359192,0.0358886700000767
-84.94024658,-121.35652924,0.0361328200001481
-84.93797302,-121.36221313,0.0366211000000476
-84.90435791,-121.37249756,0.0367431700001362
-84.90715027,-121.38246918,0.0367431700001362
-84.90706635,-121.39560699,0.0367431700001362
-84.93546295,-121.35505676,0.0368652400002247
-84.94052124,-121.36218262,0.0368652400002247
-84.90650177,-121.38694763,0.0368652400002247
-84.90315247,-121.38208008,0.0368652400002247
-84.93300629,-121.35575867,0.0371093800001745
-84.90086365,-121.38324738,0.0371093800001745
-84.94129181,-121.37451935,0.0373535200001243
-84.91751099,-121.39453888,0.0374755900002128
-84.91287994,-121.40640259,0.037597660000074
-84.9440918,-121.39727783,0.037597660000074
-84.92424011,-121.38723755,0.0377197300001626
-84.94065094,-121.36901093,0.0378418000000238
-84.92214966,-121.39792633,0.0378418000000238
-84.93508911,-121.39208984,0.0380859400002009
-84.9155426,-121.38545227,0.0380859400002009
-84.90036774,-121.38269806,0.0380859400002009
-84.94075775,-121.39452362,0.0382080100000621
-84.90457153,-121.38433838,0.0382080100000621
-84.90007782,-121.38394165,0.0382080100000621
-84.9471817,-121.37095642,0.0383300800001507
-84.92791748,-121.42160034,0.0383300800001507
-84.89492035,-121.39443207,0.0383300800001507
-84.94281769,-121.37825012,0.0384521500000119
-84.92379761,-121.36167908,0.0384521500000119
-84.93428802,-121.38825226,0.0384521500000119
-84.92141724,-121.41481781,0.0384521500000119
-84.89933014,-121.39578247,0.0384521500000119
-84.93460846,-121.39704895,0.0385742200001005
-84.92590332,-121.41542816,0.0385742200001005
-84.93920135,-121.35716248,0.038696290000189
-84.91899109,-121.40254974,0.0389404300001388
-84.93460846,-121.39079285,0.0389404300001388
-84.9437027,-121.39652252,0.0390625
-84.93924713,-121.39241028,0.0390625
-84.93598938,-121.37906647,0.0391845700000886
-84.90667725,-121.3883667,0.0394287100000383
-84.89851379,-121.39698029,0.0394287100000383
-84.90380096,-121.38221741,0.0395507800001269
-84.94064331,-121.39022064,0.0395507800001269
-84.92588806,-121.41268158,0.0395507800001269
-84.91954041,-121.40830231,0.0396728500002155
-84.89675903,-121.39710236,0.0396728500002155
-84.93734741,-121.36425781,0.0399170000000595
-84.93360138,-121.36093903,0.0400390700001481
-84.94542694,-121.39660645,0.0400390700001481
-84.92328644,-121.41725159,0.0400390700001481
-84.90161896,-121.39923859,0.0400390700001481
-84.9417572,-121.35469818,0.0401611400000093
-84.92208862,-121.39885712,0.0401611400000093
-84.9182663,-121.40873718,0.0401611400000093
-84.92922974,-121.41520691,0.0401611400000093
-84.93553162,-121.37751007,0.0402832100000978
-84.94448853,-121.35527039,0.0404052800001864
-84.93824768,-121.39411163,0.0404052800001864
-84.93247223,-121.39942169,0.0404052800001864
-84.92288208,-121.35832977,0.0405273500000476
-84.91892242,-121.41175079,0.0405273500000476
-84.92682648,-121.41703033,0.0405273500000476
-84.90840912,-121.39092255,0.0406494200001362
-84.93621063,-121.38728333,0.0406494200001362
-84.94154358,-121.39586639,0.0406494200001362
-84.89211273,-121.39600372,0.0406494200001362
-84.89012909,-121.39559174,0.0406494200001362
-84.94290161,-121.35822296,0.0407714900002247
-84.92375183,-121.36260223,0.0407714900002247
-84.92931366,-121.39205933,0.0407714900002247
-84.90796661,-121.38661194,0.0408935600000859
-84.92886353,-121.41694641,0.0408935600000859
-84.94042969,-121.38065338,0.0410156300001745
-84.90099335,-121.38587952,0.0410156300001745
-84.89544678,-121.39826965,0.0410156300001745
-84.9392395,-121.3786087,0.0411377000000357
-84.9210968,-121.39829254,0.0411377000000357
-84.94271088,-121.36921692,0.0413818400002128
-84.9136734,-121.38803101,0.0413818400002128
-84.92536163,-121.35861969,0.0416259800001626
-84.90531921,-121.38591003,0.0417480500000238
-84.91771698,-121.40992737,0.0417480500000238
-84.93560028,-121.38272095,0.0417480500000238
-84.91615295,-121.3963623,0.0417480500000238
-84.89926147,-121.38480377,0.0417480500000238
-84.89845276,-121.38677979,0.0417480500000238
-84.90386963,-121.3891983,0.0418701200001124
-84.93251801,-121.3961792,0.0418701200001124
-84.92867279,-121.42297363,0.0418701200001124
-84.90421295,-121.38645172,0.0419921900002009
-84.92577362,-121.41522217,0.0419921900002009
-84.9378891,-121.36200714,0.0421142600000621
-84.91246033,-121.4099884,0.0421142600000621
-84.93686676,-121.39201355,0.0421142600000621
-84.91313171,-121.41648102,0.0421142600000621
-84.93946075,-121.39485168,0.0422363300001507
-84.94539642,-121.40171051,0.0422363300001507
-84.90766144,-121.38780975,0.0423584000000119
-84.89084625,-121.39668274,0.0423584000000119
-84.93585968,-121.36089325,0.0424804700001005
-84.92392731,-121.36405182,0.0424804700001005
-84.92050171,-121.40873718,0.0424804700001005
-84.89647675,-121.38543701,0.0424804700001005
-84.90131378,-121.40100861,0.0424804700001005
-84.89035797,-121.39337921,0.0424804700001005
-84.94867706,-121.35746002,0.042602540000189
-84.92897797,-121.3936615,0.042602540000189
-84.9196167,-121.42025757,0.042602540000189
-84.89282227,-121.39407349,0.042602540000189
-84.94615173,-121.35749817,0.0427246100000502
-84.90299225,-121.38455963,0.0428466800001388
-84.94458771,-121.35919952,0.0428466800001388
-84.93557739,-121.38292694,0.04296875
-84.93939972,-121.39631653,0.04296875
-84.90406799,-121.39041901,0.04296875
-84.92562103,-121.42073822,0.04296875
-84.94731903,-121.39881897,0.0430908200000886
-84.92591858,-121.40313721,0.0430908200000886
-84.91677856,-121.4076004,0.0430908200000886
-84.92826843,-121.42220306,0.0430908200000886
-84.91088104,-121.38863373,0.0432128900001771
-84.9397583,-121.36152649,0.0433349600000383
-84.93070984,-121.39427948,0.0433349600000383
-84.93942261,-121.37313843,0.0434570300001269
-84.9307785,-121.36074066,0.0434570300001269
-84.93791199,-121.38024139,0.0434570300001269
-84.91362,-121.41223907,0.0434570300001269
-84.94004822,-121.39679718,0.0434570300001269
-84.93836212,-121.36927032,0.0435791000002155
-84.9431076,-121.35838318,0.0435791000002155
-84.90846252,-121.39379883,0.0435791000002155
-84.92896271,-121.41999817,0.0435791000002155
-84.94920349,-121.35556793,0.0437011700000767
-84.94052887,-121.36078644,0.0438232500000595
-84.93813324,-121.3967514,0.0439453200001481
-84.91542053,-121.41053009,0.0439453200001481
-84.92494202,-121.40232086,0.0440673900000093
-84.92298126,-121.42279816,0.0440673900000093
-84.9296875,-121.39800262,0.0441894600000978
-84.89199829,-121.39553833,0.0441894600000978
-84.93814087,-121.36084747,0.0443115300001864
-84.9196167,-121.40415192,0.0443115300001864
-84.89636993,-121.38813019,0.0443115300001864
-84.92121887,-121.42292023,0.0443115300001864
-84.90046692,-121.40273285,0.0443115300001864
-84.89375305,-121.39568329,0.0443115300001864
-84.91264343,-121.41142273,0.0444336000000476
-84.90448761,-121.39238739,0.0444336000000476
-84.94705963,-121.35948181,0.0445556700001362
-84.93573761,-121.36161041,0.0445556700001362
-84.93434906,-121.39311218,0.0446777400002247
-84.93370819,-121.36047363,0.0449218800001745
-84.92722321,-121.41712952,0.0449218800001745
-84.91927338,-121.4225235,0.0449218800001745
-84.91702271,-121.42234802,0.0449218800001745
-84.9284668,-121.36987305,0.0450439500000357
-84.90969086,-121.41674805,0.0450439500000357
-84.94355774,-121.36608124,0.0452880900002128
-84.88716125,-121.39692688,0.0452880900002128
-84.92904663,-121.36755371,0.045410160000074
-84.90686798,-121.38818359,0.045410160000074
-84.9352417,-121.36293793,0.0455322300001626
-84.91227722,-121.39086151,0.0455322300001626
-84.92137146,-121.40390778,0.0455322300001626
-84.9383316,-121.36920166,0.0456543000000238
-84.94049835,-121.37718201,0.0456543000000238
-84.92987823,-121.38015747,0.0456543000000238
-84.91552734,-121.42249298,0.0457763700001124
-84.94516754,-121.36035919,0.0458984400002009
-84.94812775,-121.35002899,0.0460205100000621
-84.94156647,-121.397789,0.0460205100000621
-84.90438843,-121.39483643,0.0460205100000621
-84.89537048,-121.39808655,0.0460205100000621
-84.88916016,-121.39408875,0.0460205100000621
-84.94294739,-121.36229706,0.0461425800001507
-84.9263916,-121.39528656,0.0462646500000119
-84.90142059,-121.3859787,0.0462646500000119
-84.91375732,-121.42285919,0.0462646500000119
-84.8875885,-121.39497375,0.0462646500000119
-84.93776703,-121.36161804,0.0463867200001005
-84.89170074,-121.38491058,0.0463867200001005
-84.92706299,-121.42289734,0.0463867200001005
-84.91773987,-121.4234314,0.0463867200001005
-84.91352081,-121.39862061,0.046508790000189
-84.88555145,-121.38169861,0.046508790000189
-84.92507172,-121.42275238,0.046508790000189
-84.9420166,-121.39929199,0.0466308600000502
-84.91195679,-121.41609192,0.0466308600000502
-84.91864777,-121.42150116,0.0466308600000502
-84.90927887,-121.39823151,0.0467529300001388
-84.93752289,-121.3951416,0.0467529300001388
-84.88633728,-121.39839172,0.0467529300001388
-84.9384613,-121.37602234,0.046875
-84.92511749,-121.39572906,0.046875
-84.91696167,-121.39270782,0.046875
-84.88764954,-121.39774323,0.0469970700000886
-84.94075012,-121.36736298,0.0471191400001771
-84.91317749,-121.40910339,0.0471191400001771
-84.93179321,-121.39795685,0.0471191400001771
-84.92336273,-121.39591217,0.0472412100000383
-84.94351959,-121.39888,0.0472412100000383
-84.92838287,-121.41600037,0.0472412100000383
-84.92585754,-121.37068939,0.0474853500002155
-84.89974976,-121.38761139,0.0474853500002155
-84.93045044,-121.39283752,0.0474853500002155
-84.92204285,-121.42653656,0.0474853500002155
-84.88809204,-121.3955307,0.0474853500002155
-84.94251251,-121.36109924,0.0476074200000767
-84.92958832,-121.36531067,0.0476074200000767
-84.91696167,-121.42739868,0.0476074200000767
-84.93229675,-121.38191986,0.0477295000000595
-84.91963196,-121.40277863,0.0477295000000595
-84.91504669,-121.41288757,0.0477295000000595
-84.92627716,-121.36695862,0.0478515700001481
-84.92996216,-121.42165375,0.0478515700001481
-84.91867828,-121.4247818,0.0478515700001481
-84.90644073,-121.41452789,0.0478515700001481
-84.92555237,-121.4235611,0.0479736400000093
-84.94020081,-121.40093231,0.0480957100000978
-84.91876221,-121.40625,0.0480957100000978
-84.94714355,-121.40419006,0.0480957100000978
-84.91790771,-121.35466003,0.0483398500000476
-84.92276001,-121.40637207,0.0483398500000476
-84.92843628,-121.36950684,0.0484619200001362
-84.91806793,-121.35740662,0.0484619200001362
-84.93911743,-121.39779663,0.0484619200001362
-84.93177032,-121.4213028,0.0484619200001362
-84.90042114,-121.40830231,0.0484619200001362
-84.89781952,-121.38694,0.0485839900002247
-84.88459015,-121.39576721,0.0485839900002247
-84.94431305,-121.35505676,0.0487060600000859
-84.89636993,-121.38672638,0.0487060600000859
-84.93318176,-121.3968277,0.0487060600000859
-84.89552307,-121.40364838,0.0487060600000859
-84.89260864,-121.40242004,0.0487060600000859
-84.89276886,-121.38720703,0.0488281300001745
-84.92054749,-121.40477753,0.0488281300001745
-84.92076111,-121.40628815,0.0488281300001745
-84.89984131,-121.3875885,0.0488281300001745
-84.92159271,-121.42326355,0.0488281300001745
-84.9183197,-121.4265213,0.0488281300001745
-84.88816833,-121.39832306,0.0489502000000357
-84.92578888,-121.39743042,0.0490722700001243
-84.94313049,-121.40138245,0.0490722700001243
-84.9069519,-121.41809845,0.0490722700001243
-84.94731903,-121.35237885,0.0491943400002128
-84.93042755,-121.36200714,0.0491943400002128
-84.93694305,-121.3971405,0.049316410000074
-84.88394165,-121.39798737,0.049316410000074
-84.93344879,-121.36061096,0.0494384800001626
-84.93701172,-121.36421204,0.0494384800001626
-84.93222046,-121.3603363,0.0494384800001626
-84.89463806,-121.38565063,0.0494384800001626
-84.92581177,-121.42085266,0.0494384800001626
-84.91896057,-121.42180634,0.0494384800001626
-84.94022369,-121.36058807,0.0495605500000238
-84.94087982,-121.40241241,0.0496826200001124
-84.87995911,-121.39768219,0.0496826200001124
-84.89891815,-121.40869904,0.0496826200001124
-84.9196167,-121.42637634,0.0498046900002009
-84.91235352,-121.42630768,0.0498046900002009
-84.92977142,-121.35874176,0.0499267600000621
-84.91464996,-121.39353943,0.0499267600000621
