"X","Y","Z"
-84.85027313,-121.40057373,0.15600586000005
-84.91153717,-121.36695862,0.15600586000005
-84.90426636,-121.36746979,0.15600586000005
-84.86387634,-121.4414978,0.15600586000005
-84.94789886,-121.35552979,0.156127930000139
-84.90113068,-121.36830139,0.156127930000139
-84.9107666,-121.35504913,0.15625
-84.94547272,-121.40083313,0.15625
-84.90354156,-121.3589325,0.15625
-84.90001678,-121.35930634,0.156372070000089
-84.94200134,-121.41365051,0.156372070000089
-84.92147827,-121.38452911,0.156494140000177
-84.90276337,-121.35964966,0.156494140000177
-84.85502625,-121.43643951,0.156494140000177
-84.94915771,-121.42475128,0.156494140000177
-84.90805054,-121.37937927,0.156494140000177
-84.93782806,-121.43756866,0.156494140000177
-84.85083771,-121.40579224,0.156616210000038
-84.90821838,-121.36882782,0.156616210000038
-84.94364166,-121.42481995,0.156616210000038
-84.94412231,-121.42835999,0.156616210000038
-84.93180084,-121.39035797,0.156738280000127
-84.93492126,-121.40808105,0.156738280000127
-84.89537048,-121.40753174,0.156860350000215
-84.87216949,-121.3507309,0.156860350000215
-84.9031601,-121.36264801,0.157104500000059
-84.8527832,-121.43608856,0.157226570000148
-84.85423279,-121.40249634,0.157348640000009
-84.92864227,-121.39556122,0.157348640000009
-84.9349823,-121.41712189,0.157348640000009
-84.91458893,-121.38919067,0.157348640000009
-84.93592072,-121.3942337,0.157470710000098
-84.90450287,-121.36743164,0.157470710000098
-84.94902802,-121.43002319,0.157470710000098
-84.93919373,-121.41470337,0.157470710000098
-84.90617371,-121.36998749,0.157592780000186
-84.89582825,-121.36289215,0.157592780000186
-84.92172241,-121.3844986,0.157714850000048
-84.8928299,-121.35678101,0.157714850000048
-84.9050293,-121.36669159,0.157714850000048
-84.90168762,-121.3615799,0.157714850000048
-84.89601898,-121.35112762,0.157836920000136
-84.85668945,-121.43894958,0.157836920000136
-84.93715668,-121.4087677,0.157836920000136
-84.94558716,-121.44358063,0.157958990000225
-84.90557098,-121.35743713,0.157958990000225
-84.8515625,-121.43502808,0.157958990000225
-84.87120056,-121.44667053,0.157958990000225
-84.94217682,-121.42797852,0.157958990000225
-84.94667816,-121.40155792,0.158081060000086
-84.90699005,-121.35999298,0.158081060000086
-84.94615173,-121.42855072,0.158081060000086
-84.90302277,-121.36660767,0.158203130000174
-84.87490845,-121.3547287,0.158203130000174
-84.89653778,-121.35012054,0.158569340000213
-84.92854309,-121.35064697,0.158691410000074
-84.94521332,-121.40048981,0.158691410000074
-84.90093994,-121.36102295,0.158691410000074
-84.91844177,-121.39502716,0.158691410000074
-84.9457016,-121.35613251,0.158813480000163
-84.90318298,-121.36134338,0.158813480000163
-84.90664673,-121.37020874,0.158813480000163
-84.92987061,-121.41248322,0.158813480000163
-84.90799713,-121.36724091,0.159057620000112
-84.94850159,-121.40709686,0.159057620000112
-84.90543365,-121.36139679,0.159057620000112
-84.90213013,-121.36305237,0.159057620000112
-84.85037231,-121.40731812,0.159179690000201
-84.93686676,-121.39495087,0.159179690000201
-84.90531158,-121.35739136,0.159179690000201
-84.89894104,-121.36093903,0.159179690000201
-84.93572235,-121.42121887,0.159179690000201
-84.8506012,-121.43319702,0.159301760000062
-84.90881348,-121.37300873,0.159423830000151
-84.91068268,-121.37708282,0.159423830000151
-84.94348145,-121.39940643,0.159423830000151
-84.94255066,-121.44418335,0.159423830000151
-84.93907166,-121.42022705,0.159423830000151
-84.94976044,-121.40661621,0.159545900000012
-84.90672302,-121.36794281,0.159545900000012
-84.94168854,-121.43653107,0.159545900000012
-84.90461731,-121.37640381,0.1596679700001
-84.90802002,-121.37397766,0.159790040000189
-84.94574738,-121.42803955,0.159790040000189
-84.91177368,-121.35137939,0.15991211000005
-84.89692688,-121.35308838,0.15991211000005
-84.90724945,-121.36669159,0.160034180000139
-84.94090271,-121.42590332,0.160034180000139
-84.90931702,-121.35928345,0.16015625
-84.91918945,-121.38433838,0.16015625
-84.89643097,-121.36083221,0.16015625
-84.89346313,-121.35997772,0.16015625
-84.90206909,-121.36450958,0.16015625
-84.92237854,-121.38643646,0.160278320000089
-84.90390015,-121.36181641,0.160278320000089
-84.90544891,-121.36811829,0.160278320000089
-84.90238953,-121.3620224,0.160278320000089
-84.90422058,-121.35317993,0.160400390000177
-84.90455627,-121.35682678,0.160400390000177
-84.8970108,-121.3583374,0.160400390000177
-84.93662262,-121.39465332,0.160522460000038
-84.92056274,-121.40074158,0.160522460000038
-84.91771698,-121.38327026,0.160644530000127
-84.89672089,-121.3515625,0.160644530000127
-84.89777374,-121.36560822,0.160644530000127
-84.89144897,-121.35906982,0.160644530000127
-84.90868378,-121.36094666,0.160766600000215
-84.90525055,-121.35858917,0.160766600000215
-84.89633942,-121.36331177,0.160766600000215
-84.90667725,-121.3793335,0.160766600000215
-84.91161346,-121.36305237,0.160888670000077
-84.90026093,-121.36592865,0.160888670000077
-84.88764954,-121.35652161,0.161010750000059
-84.94490814,-121.36591339,0.161132820000148
-84.90660858,-121.35240173,0.161132820000148
-84.9356308,-121.39409637,0.161132820000148
-84.9003067,-121.35666656,0.161132820000148
-84.89668274,-121.35279083,0.161132820000148
-84.90106964,-121.36395264,0.161132820000148
-84.90638733,-121.36988068,0.161132820000148
-84.9030304,-121.3572464,0.161376960000098
-84.89650726,-121.35002899,0.161376960000098
-84.92415619,-121.40630341,0.161376960000098
-84.94702148,-121.3662262,0.161499030000186
-84.93100739,-121.35063934,0.161499030000186
-84.91024017,-121.37423706,0.161499030000186
-84.94709778,-121.35803223,0.161621100000048
-84.90274048,-121.36624146,0.161621100000048
-84.85639954,-121.43881989,0.161621100000048
-84.89483643,-121.36437225,0.161621100000048
-84.945961,-121.4462204,0.161743170000136
-84.90592957,-121.36833954,0.161743170000136
-84.86003113,-121.44268799,0.161743170000136
-84.93039703,-121.41332245,0.161743170000136
-84.91671753,-121.38269806,0.161865240000225
-84.89955902,-121.35611725,0.161865240000225
-84.89745331,-121.35179138,0.161865240000225
-84.905159,-121.37998199,0.161865240000225
-84.9087677,-121.37317657,0.161987310000086
-84.93373871,-121.41233063,0.161987310000086
-84.9152298,-121.36663055,0.162109380000174
-84.90612793,-121.36984253,0.162109380000174
-84.9104538,-121.36357117,0.162353520000124
-84.90833282,-121.36338806,0.162353520000124
-84.9411087,-121.42093658,0.162353520000124
-84.93536377,-121.41748047,0.162353520000124
-84.90171814,-121.35891724,0.162475590000213
-84.93536377,-121.42073822,0.162475590000213
-84.91233826,-121.39109039,0.162475590000213
-84.90831757,-121.35453796,0.162719730000163
-84.93421936,-121.35144806,0.162719730000163
-84.89763641,-121.35353088,0.162719730000163
-84.89611816,-121.36174011,0.162719730000163
-84.92533112,-121.40792084,0.162719730000163
-84.94940948,-121.37412262,0.162841800000024
-84.91423798,-121.36607361,0.162841800000024
-84.90827942,-121.37262726,0.162963870000112
-84.90705109,-121.36408234,0.162963870000112
-84.89938354,-121.36132813,0.162963870000112
-84.86025238,-121.44290161,0.162963870000112
-84.88881683,-121.35839844,0.162963870000112
-84.90727997,-121.37416077,0.163208010000062
-84.91229248,-121.36448669,0.163208010000062
-84.91705322,-121.39849091,0.163208010000062
-84.93270111,-121.35189056,0.163330080000151
-84.91320801,-121.36676788,0.163330080000151
-84.89827728,-121.35652924,0.163330080000151
-84.93492126,-121.41394806,0.163330080000151
-84.90679932,-121.37181854,0.163452150000012
-84.91725159,-121.38140869,0.1635742200001
-84.89704895,-121.36373901,0.1635742200001
-84.94138336,-121.4212265,0.1635742200001
-84.91031647,-121.36341095,0.163696290000189
-84.89890289,-121.3527832,0.163696290000189
-84.89434814,-121.36190033,0.163696290000189
-84.90830994,-121.36334229,0.163940430000139
-84.94406128,-121.43293762,0.163940430000139
-84.94538116,-121.35600281,0.1640625
-84.89109039,-121.36184692,0.1640625
-84.93530273,-121.39549255,0.164184570000089
-84.90244293,-121.35913849,0.164184570000089
-84.92134857,-121.40486145,0.164184570000089
-84.90190125,-121.35198212,0.164306640000177
-84.85217285,-121.40879822,0.164306640000177
-84.93421173,-121.35140228,0.164306640000177
-84.89704895,-121.35571289,0.164306640000177
-84.90312195,-121.36917114,0.164306640000177
-84.94766235,-121.42774963,0.164306640000177
-84.94774628,-121.3723526,0.164428710000038
-84.89414978,-121.35236359,0.164428710000038
-84.90196228,-121.36089325,0.164550780000127
-84.86170959,-121.44390106,0.164550780000127
-84.91433716,-121.37802887,0.164672850000215
-84.90193939,-121.36685944,0.164672850000215
-84.94159698,-121.36978149,0.164794920000077
-84.89418793,-121.35108948,0.164794920000077
-84.93720245,-121.4174118,0.164794920000077
-84.92494965,-121.4071579,0.164794920000077
-84.8960495,-121.36927795,0.164794920000077
-84.92848206,-121.41020203,0.164917000000059
-84.89903259,-121.36374664,0.165039070000148
-84.89508057,-121.36238098,0.165039070000148
-84.90503693,-121.38278198,0.165039070000148
-84.9384079,-121.35276031,0.165161140000009
-84.9074707,-121.37352753,0.165161140000009
-84.92790985,-121.3914566,0.165283210000098
-84.90335846,-121.36138153,0.165283210000098
-84.89115906,-121.35173035,0.165283210000098
-84.92304993,-121.38678741,0.165527350000048
-84.8988266,-121.35421753,0.165527350000048
-84.89727783,-121.35591888,0.165527350000048
-84.90029144,-121.36328125,0.165527350000048
-84.92649841,-121.40377808,0.165527350000048
-84.89389038,-121.35231018,0.165649420000136
-84.89038086,-121.35244751,0.165649420000136
-84.94969177,-121.40641022,0.165771490000225
-84.90035248,-121.35375977,0.165771490000225
-84.91139221,-121.37613678,0.165893560000086
-84.93321228,-121.35082245,0.166015630000174
-84.94532013,-121.40225983,0.166015630000174
-84.8949585,-121.3500824,0.166015630000174
-84.89579773,-121.3548584,0.166015630000174
-84.94773102,-121.40509033,0.166137700000036
-84.93305206,-121.39485168,0.166137700000036
-84.92040253,-121.38368225,0.166137700000036
-84.89788818,-121.35217285,0.166137700000036
-84.90342712,-121.36308289,0.166259770000124
-84.91457367,-121.37822723,0.166259770000124
-84.90971375,-121.3576889,0.166381840000213
-84.93663025,-121.3531723,0.166381840000213
-84.90039825,-121.35949707,0.166381840000213
-84.89723206,-121.35714722,0.166381840000213
-84.94898987,-121.40460968,0.166625980000163
-84.8934021,-121.35176086,0.166625980000163
-84.8656311,-121.44545746,0.166625980000163
-84.94484711,-121.42304993,0.166625980000163
-84.92765808,-121.40540314,0.166748050000024
-84.93363953,-121.40912628,0.166748050000024
-84.90554047,-121.37091064,0.166870120000112
-84.89647675,-121.36461639,0.166870120000112
-84.90190887,-121.35211945,0.166992190000201
-84.89427185,-121.36328888,0.166992190000201
-84.94747925,-121.40479279,0.167114260000062
-84.91696167,-121.38128662,0.167114260000062
-84.90431976,-121.36210632,0.167114260000062
-84.88964844,-121.36228943,0.167114260000062
-84.9386673,-121.35144806,0.167358400000012
-84.89823914,-121.3644104,0.167358400000012
-84.89134216,-121.3531723,0.167358400000012
-84.92008972,-121.39980316,0.167358400000012
-84.92038727,-121.38339233,0.1674804700001
-84.91137695,-121.389328,0.1674804700001
-84.94557953,-121.36322784,0.167602540000189
-84.94711304,-121.42649841,0.167602540000189
-84.91014099,-121.37528992,0.167846680000139
-84.89362335,-121.35198212,0.167846680000139
-84.92720032,-121.4021225,0.167846680000139
-84.93546295,-121.41204834,0.167846680000139
-84.94203949,-121.35529327,0.16796875
-84.93987274,-121.39977264,0.16796875
-84.90209961,-121.36850739,0.16796875
-84.89794922,-121.37197876,0.16796875
-84.90479279,-121.3703537,0.168090820000089
-84.89855194,-121.35413361,0.168212890000177
-84.94621277,-121.37738037,0.168334960000038
-84.94403839,-121.40238953,0.168334960000038
-84.88986206,-121.35208893,0.168334960000038
-84.89250946,-121.3551712,0.168457030000127
-84.89260101,-121.35241699,0.168579100000215
-84.89797974,-121.36411285,0.168579100000215
-84.89447021,-121.36448669,0.168579100000215
-84.89990234,-121.35890961,0.168701170000077
-84.94535828,-121.35607147,0.168823250000059
-84.9335022,-121.3952713,0.168945320000148
-84.89911652,-121.35962677,0.168945320000148
-84.91448975,-121.38858795,0.168945320000148
-84.92703247,-121.40161896,0.169067390000009
-84.89040375,-121.36312866,0.169067390000009
-84.89907837,-121.3528595,0.169189460000098
-84.90290833,-121.36624908,0.169189460000098
-84.92835236,-121.39183807,0.169311530000186
-84.9458313,-121.42442322,0.169311530000186
-84.91899109,-121.39221954,0.169433600000048
-84.9023819,-121.37416077,0.169555670000136
-84.89903259,-121.35434723,0.169555670000136
-84.90045166,-121.36464691,0.169555670000136
-84.88417053,-121.35636902,0.169555670000136
-84.91634369,-121.35899353,0.169799810000086
-84.86121368,-121.4419632,0.169799810000086
-84.93215942,-121.40679932,0.169799810000086
-84.93251038,-121.39470673,0.169921880000174
-84.89299011,-121.35539246,0.169921880000174
-84.92060089,-121.38356018,0.170166020000124
-84.8991394,-121.36634827,0.170166020000124
-84.85948944,-121.44088745,0.170166020000124
-84.89466095,-121.36673737,0.170166020000124
-84.9283905,-121.39031219,0.170288090000213
-84.90538788,-121.366539,0.170288090000213
-84.9418335,-121.4213562,0.170288090000213
-84.89131165,-121.36472321,0.170288090000213
-84.94776154,-121.37876129,0.170410160000074
-84.91255951,-121.37677765,0.170410160000074
-84.89984131,-121.36009979,0.170410160000074
-84.90184784,-121.37458801,0.170776370000112
-84.90831757,-121.38160706,0.170776370000112
-84.94476318,-121.36557007,0.170898440000201
-84.94568634,-121.37866211,0.170898440000201
-84.91963196,-121.35520172,0.170898440000201
-84.9408493,-121.43361664,0.170898440000201
-84.94882965,-121.43418121,0.171020510000062
-84.89703369,-121.3767395,0.171142580000151
-84.90692902,-121.3650589,0.171142580000151
-84.92575073,-121.39954376,0.171142580000151
-84.90151215,-121.35437012,0.171264650000012
-84.89998627,-121.35507202,0.171264650000012
-84.91365814,-121.38730621,0.171264650000012
-84.90088654,-121.36611176,0.1713867200001
-84.93382263,-121.41197205,0.1713867200001
-84.92082977,-121.3837738,0.171508790000189
-84.91190338,-121.38742828,0.171508790000189
-84.8824234,-121.35375977,0.171508790000189
-84.91863251,-121.38218689,0.17163086000005
-84.92886353,-121.39077759,0.171752930000139
-84.94496918,-121.35679626,0.171875
-84.92617035,-121.38893127,0.171875
-84.91951752,-121.39605713,0.171875
-84.9152832,-121.38619232,0.171875
-84.9468689,-121.37454224,0.171997070000089
-84.89924622,-121.35453033,0.171997070000089
-84.90634918,-121.36727142,0.171997070000089
-84.91400909,-121.37776947,0.172241210000038
-84.8961792,-121.35642242,0.172241210000038
-84.9016571,-121.37433624,0.172241210000038
-84.90886688,-121.37433624,0.172485350000215
-84.93273163,-121.39463806,0.172485350000215
-84.89832306,-121.35222626,0.172485350000215
-84.92401886,-121.39968109,0.172485350000215
-84.88715363,-121.35791016,0.172485350000215
-84.91204834,-121.37644196,0.172607420000077
-84.90418243,-121.36441803,0.172607420000077
-84.9463501,-121.35238647,0.172729500000059
-84.90735626,-121.36653137,0.172729500000059
-84.91532898,-121.39222717,0.172851570000148
-84.94464874,-121.37368774,0.172973640000009
-84.88316345,-121.35459137,0.172973640000009
-84.92015839,-121.35295868,0.173095710000098
-84.93434906,-121.44113159,0.173095710000098
-84.94786072,-121.37812042,0.173217780000186
-84.93390656,-121.39665222,0.173217780000186
-84.90263367,-121.35784912,0.173217780000186
-84.93495941,-121.41082764,0.173217780000186
-84.94931793,-121.40740967,0.173339850000048
-84.90319824,-121.36361694,0.173339850000048
-84.90302277,-121.36911774,0.173339850000048
-84.91957092,-121.39608002,0.173339850000048
-84.92807007,-121.40602875,0.173461920000136
-84.92089081,-121.43570709,0.173583990000225
-84.92736816,-121.38967133,0.173706060000086
-84.9016037,-121.35855103,0.173706060000086
-84.90441895,-121.35637665,0.173828130000174
-84.94191742,-121.41841125,0.173828130000174
-84.89608002,-121.37963867,0.173950200000036
-84.94548798,-121.3704071,0.174072270000124
-84.89118195,-121.36151123,0.174072270000124
-84.94834137,-121.40659332,0.174194340000213
-84.90415955,-121.37213135,0.174194340000213
-84.94539642,-121.40448761,0.174438480000163
-84.93418121,-121.39562225,0.174438480000163
-84.86625671,-121.44673157,0.174438480000163
-84.94274139,-121.37197876,0.174560550000024
-84.92807007,-121.40328979,0.174560550000024
-84.91908264,-121.38260651,0.174682620000112
-84.90358734,-121.35858154,0.174682620000112
-84.89859009,-121.36962128,0.174682620000112
-84.9133606,-121.38934326,0.174682620000112
-84.94677734,-121.37419891,0.174804690000201
-84.85032654,-121.41387939,0.174926760000062
-84.90135193,-121.35825348,0.174926760000062
-84.90390778,-121.36408997,0.174926760000062
-84.93456268,-121.41031647,0.174926760000062
-84.92925262,-121.40765381,0.174926760000062
-84.89823151,-121.38758087,0.175048830000151
-84.89492798,-121.3913269,0.175048830000151
-84.90019989,-121.35495758,0.175048830000151
-84.89431763,-121.35101318,0.175048830000151
-84.90576935,-121.38072205,0.175048830000151
-84.90171051,-121.35449982,0.1752929700001
-84.94490051,-121.40419006,0.175415040000189
-84.94171143,-121.40207672,0.17553711000005
-84.92809296,-121.39012909,0.17553711000005
-84.91737366,-121.39292908,0.17553711000005
-84.89144897,-121.36180115,0.17553711000005
-84.88632202,-121.35688019,0.17553711000005
-84.93707275,-121.39868164,0.175659180000139
-84.9127121,-121.37812042,0.175659180000139
-84.86154175,-121.44503784,0.175659180000139
-84.92991638,-121.40570831,0.175659180000139
-84.89872742,-121.35388947,0.17578125
-84.90202332,-121.36023712,0.176025390000177
-84.94822693,-121.42520905,0.176025390000177
-84.88233185,-121.3535614,0.176025390000177
-84.9311676,-121.44190216,0.176025390000177
-84.90866852,-121.37145996,0.176147460000038
-84.93726349,-121.40042114,0.176147460000038
-84.90368652,-121.3628006,0.176147460000038
-84.93683624,-121.41052246,0.176147460000038
-84.94333649,-121.37000275,0.176269530000127
-84.8970871,-121.3702774,0.176269530000127
-84.94019318,-121.40249634,0.176513670000077
-84.90654755,-121.35936737,0.176513670000077
-84.91168213,-121.37078094,0.176879890000009
-84.88950348,-121.36167145,0.176879890000009
-84.92904663,-121.39086151,0.177001960000098
-84.90337372,-121.37680054,0.177001960000098
-84.90769958,-121.37915039,0.177124030000186
-84.93650818,-121.39985657,0.177124030000186
-84.91564178,-121.39006042,0.177124030000186
-84.89768982,-121.35455322,0.177246100000048
-84.94960022,-121.42733765,0.177246100000048
-84.88040924,-121.35619354,0.177246100000048
-84.86251068,-121.44551086,0.177368170000136
-84.92997742,-121.40573883,0.177368170000136
-84.94528198,-121.39578247,0.177368170000136
-84.90474701,-121.36052704,0.177490240000225
-84.89444733,-121.3854599,0.177612310000086
-84.92725372,-121.39900208,0.177612310000086
-84.93798828,-121.41239166,0.177612310000086
-84.90672302,-121.37908173,0.177612310000086
-84.89597321,-121.35323334,0.177734380000174
-84.91481018,-121.37409973,0.178100590000213
-84.90869904,-121.3618927,0.178100590000213
-84.90396118,-121.36148834,0.178100590000213
-84.93437958,-121.39575195,0.178222660000074
-84.90257263,-121.35794067,0.178222660000074
-84.90953064,-121.35726166,0.178344730000163
-84.89354706,-121.35063171,0.178344730000163
-84.89491272,-121.36688232,0.178344730000163
-84.94229126,-121.41876221,0.178588870000112
-84.89067841,-121.36328888,0.178588870000112
-84.94071198,-121.40119934,0.178710940000201
-84.93086243,-121.40457153,0.178710940000201
-84.90859222,-121.3515625,0.178833010000062
-84.89277649,-121.35108948,0.178833010000062
-84.90698242,-121.36080933,0.178833010000062
-84.94625854,-121.35958099,0.178955080000151
-84.91362,-121.37203217,0.178955080000151
-84.93824768,-121.39961243,0.178955080000151
-84.91591644,-121.38710022,0.178955080000151
-84.90139008,-121.35253143,0.179077150000012
-84.94921875,-121.40847015,0.179077150000012
-84.93760681,-121.41464233,0.179077150000012
-84.88288116,-121.35742188,0.1791992200001
-84.92823029,-121.43981934,0.1791992200001
-84.90142822,-121.37367249,0.179321290000189
-84.8917923,-121.35028076,0.179565430000139
-84.91242981,-121.36971283,0.179931640000177
-84.9052124,-121.36096191,0.180053710000038
-84.91729736,-121.38922882,0.180053710000038
-84.92220306,-121.39388275,0.180053710000038
-84.94275665,-121.41655731,0.180053710000038
-84.88065338,-121.35098267,0.180053710000038
-84.90879059,-121.37928009,0.180053710000038
-84.93721771,-121.40028381,0.180175780000127
-84.90226746,-121.3588562,0.180175780000127
-84.93003845,-121.40602875,0.180175780000127
-84.89965057,-121.36802673,0.180419920000077
-84.93763733,-121.41165161,0.180542000000059
-84.87287903,-121.35112762,0.180542000000059
-84.89293671,-121.36399078,0.180542000000059
-84.91808319,-121.44548035,0.180542000000059
-84.90306091,-121.3631134,0.180664070000148
-84.91796112,-121.37637329,0.180664070000148
-84.90960693,-121.3638382,0.180664070000148
-84.89443207,-121.35359192,0.180664070000148
-84.90588379,-121.38526154,0.180786140000009
-84.90808868,-121.3642807,0.180908210000098
-84.94304657,-121.40544891,0.180908210000098
-84.93473816,-121.41043091,0.180908210000098
-84.88804626,-121.35935211,0.180908210000098
-84.90287018,-121.3707962,0.181030280000186
-84.90827179,-121.35256195,0.181152350000048
-84.94866943,-121.40937805,0.181152350000048
-84.90612793,-121.36296082,0.181152350000048
-84.91107178,-121.38272858,0.181152350000048
-84.87888336,-121.35160828,0.181152350000048
-84.87758636,-121.35201263,0.181152350000048
-84.90792084,-121.37792206,0.181274420000136
-84.91246033,-121.3684082,0.181396490000225
-84.89958191,-121.35128021,0.181518560000086
-84.90799713,-121.36231232,0.181518560000086
-84.89955902,-121.35697937,0.181640630000174
-84.94815063,-121.42201996,0.181640630000174
-84.93002319,-121.38999176,0.181762700000036
-84.91538239,-121.37850952,0.181762700000036
-84.91467285,-121.38503265,0.181762700000036
-84.8822937,-121.35314178,0.181762700000036
-84.93769073,-121.40048981,0.181884770000124
-84.89566803,-121.3649826,0.181884770000124
-84.91304016,-121.36942291,0.182128910000074
-84.90126801,-121.37043762,0.182128910000074
-84.90245056,-121.36029816,0.182250980000163
-84.92855072,-121.40344238,0.182250980000163
-84.92273712,-121.39746094,0.182250980000163
-84.91220093,-121.36837006,0.182373050000024
-84.94351959,-121.40567017,0.182373050000024
-84.89343262,-121.35299683,0.182373050000024
-84.89820099,-121.37911987,0.182495120000112
-84.89588165,-121.35458374,0.182495120000112
-84.9493866,-121.4098587,0.182617190000201
-84.9363327,-121.40680695,0.182739260000062
-84.88941193,-121.3587265,0.182739260000062
-84.93392181,-121.40561676,0.182861330000151
-84.90711212,-121.37944031,0.182861330000151
-84.92038727,-121.37787628,0.182983400000012
-84.89942932,-121.36785889,0.1831054700001
-84.90733337,-121.36392975,0.183227540000189
-84.93260193,-121.40979004,0.183227540000189
-84.89749146,-121.36789703,0.183227540000189
-84.88340759,-121.35224915,0.183227540000189
-84.88188934,-121.35237885,0.183227540000189
-84.89029694,-121.39885712,0.183471680000139
-84.93534851,-121.39485931,0.183471680000139
-84.92115784,-121.3771286,0.183471680000139
-84.87454224,-121.35030365,0.183471680000139
-84.94239044,-121.35585785,0.18359375
-84.93881989,-121.41053009,0.18359375
-84.90731049,-121.37721252,0.18359375
-84.90193939,-121.35999298,0.183715820000089
-84.92990112,-121.40280914,0.183715820000089
-84.91805267,-121.44261169,0.183715820000089
-84.91851044,-121.3737793,0.183837890000177
-84.89389801,-121.35321045,0.183959960000038
-84.91339874,-121.36910248,0.184204100000215
-84.91490173,-121.44622803,0.184204100000215
-84.91931152,-121.38005066,0.184326170000077
-84.94377899,-121.36013794,0.184448250000059
-84.92012787,-121.39328003,0.184448250000059
-84.89955139,-121.37084198,0.184448250000059
-84.91217041,-121.36830139,0.184570320000148
-84.91269684,-121.38567352,0.184570320000148
-84.88677979,-121.35453796,0.184570320000148
-84.9418869,-121.44786072,0.184570320000148
-84.94622803,-121.41890717,0.184692390000009
-84.89485931,-121.38278961,0.184814460000098
-84.89582825,-121.39485168,0.184936530000186
-84.92907715,-121.40727997,0.184936530000186
-84.90225983,-121.37181854,0.185058600000048
-84.89351654,-121.36486053,0.185180670000136
-84.90313721,-121.36097717,0.185302740000225
-84.94371796,-121.36727142,0.185424810000086
-84.90503693,-121.35562134,0.185424810000086
-84.89965057,-121.41446686,0.185791020000124
-84.87947845,-121.35222626,0.185791020000124
-84.9053421,-121.3951416,0.185913090000213
-84.91265106,-121.36852264,0.185913090000213
-84.88816833,-121.42066956,0.186035160000074
-84.90995789,-121.36667633,0.186035160000074
-84.90651703,-121.36456299,0.186157230000163
-84.92141724,-121.37579346,0.186401370000112
-84.92456055,-121.37940216,0.186401370000112
-84.92415619,-121.39060974,0.186401370000112
-84.94898987,-121.36562347,0.186523440000201
-84.91339111,-121.35896301,0.186523440000201
-84.9103775,-121.36903381,0.186523440000201
-84.90313721,-121.36068726,0.186523440000201
-84.9233017,-121.39530945,0.186523440000201
-84.92526245,-121.44045258,0.186523440000201
-84.92285919,-121.44394684,0.186523440000201
-84.89581299,-121.3650589,0.186645510000062
-84.93109131,-121.3984375,0.186767580000151
-84.88913727,-121.40203857,0.186889650000012
-84.88321686,-121.43009186,0.1870117200001
-84.92080688,-121.38884735,0.1870117200001
-84.89893341,-121.36707306,0.18725586000005
-84.90651703,-121.36427307,0.187377930000139
-84.89090729,-121.360672,0.187377930000139
-84.92793274,-121.38298035,0.1875
-84.88819122,-121.35066223,0.1875
-84.90518188,-121.37384033,0.1875
-84.93723297,-121.44609833,0.1875
-84.87822723,-121.3529129,0.187622070000089
-84.92765045,-121.38395691,0.187744140000177
-84.89479828,-121.3551178,0.187744140000177
-84.92066956,-121.39411926,0.187866210000038
-84.88905334,-121.41760254,0.187988280000127
-84.88333893,-121.35180664,0.187988280000127
-84.93798065,-121.44875336,0.187988280000127
-84.91146088,-121.38362122,0.188110350000215
-84.90164948,-121.35983276,0.188232420000077
-84.93978119,-121.36440277,0.188354500000059
-84.89943695,-121.35825348,0.188354500000059
-84.93180847,-121.39952087,0.188476570000148
-84.94168091,-121.41459656,0.188720710000098
-84.89118958,-121.35771179,0.188842780000186
-84.89028168,-121.35964203,0.188842780000186
-84.9164505,-121.39079285,0.188842780000186
-84.91799164,-121.38716125,0.189086920000136
-84.89700317,-121.36369324,0.189086920000136
-84.94895172,-121.36551666,0.189208990000225
-84.91773987,-121.380867,0.189208990000225
-84.92362213,-121.39864349,0.189208990000225
-84.89864349,-121.41837311,0.189331060000086
-84.88813019,-121.35185242,0.189331060000086
-84.91992188,-121.37464905,0.189453130000174
-84.90725708,-121.36373138,0.189453130000174
-84.88317871,-121.35131836,0.189697270000124
-84.93982697,-121.37326813,0.189941410000074
-84.91847229,-121.3942337,0.189941410000074
-84.90126801,-121.37030029,0.189941410000074
-84.8943634,-121.36248779,0.189941410000074
-84.92382813,-121.3772583,0.190063480000163
-84.88865662,-121.35083771,0.190063480000163
-84.91181183,-121.38642883,0.190063480000163
-84.91217041,-121.37542725,0.190185550000024
-84.8964386,-121.35758972,0.190307620000112
-84.91941833,-121.3743515,0.190429690000201
-84.90035248,-121.38730621,0.190551760000062
-84.93968964,-121.3504715,0.190551760000062
-84.92047882,-121.38487244,0.190551760000062
-84.92920685,-121.39833832,0.190551760000062
-84.91040039,-121.36068726,0.190795900000012
-84.9393692,-121.36617279,0.1909179700001
-84.91108704,-121.36856079,0.1909179700001
-84.93279266,-121.38627625,0.1909179700001
-84.89775848,-121.36380005,0.19116211000005
-84.93730164,-121.41053009,0.19116211000005
-84.89775085,-121.36779022,0.191284180000139
-84.88832092,-121.35677338,0.191284180000139
-84.93434906,-121.44985199,0.191284180000139
-84.89486694,-121.35852051,0.19140625
-84.90476227,-121.36308289,0.19140625
-84.92996216,-121.44811249,0.19140625
-84.90989685,-121.36650085,0.191528320000089
-84.90016174,-121.36431122,0.191650390000177
-84.8837204,-121.42775726,0.191650390000177
-84.91342926,-121.38883972,0.191650390000177
-84.8881073,-121.35176849,0.191772460000038
-84.91741943,-121.38916016,0.191772460000038
-84.8898468,-121.3518219,0.191894530000127
-84.94828033,-121.43096161,0.191894530000127
-84.94367981,-121.37468719,0.192016600000215
-84.94055939,-121.37072754,0.192016600000215
-84.90328217,-121.36200714,0.192016600000215
-84.91181183,-121.36904144,0.192138670000077
-84.94828033,-121.36733246,0.192260750000059
-84.90821838,-121.369133,0.192382820000148
-84.90540314,-121.37724304,0.192504890000009
-84.90180969,-121.37415314,0.192504890000009
-84.8739624,-121.35489655,0.192504890000009
-84.90914154,-121.37346649,0.192626960000098
-84.91866302,-121.37374115,0.192871100000048
-84.9105835,-121.36823273,0.192871100000048
-84.91110229,-121.36749268,0.193115240000225
-84.93108368,-121.40429688,0.193115240000225
-84.92233276,-121.3910675,0.193115240000225
-84.896698,-121.44835663,0.193115240000225
-84.89660645,-121.41609192,0.193237310000086
-84.88564301,-121.35014343,0.193237310000086
-84.90960693,-121.38053894,0.193237310000086
-84.87197876,-121.35475922,0.193237310000086
-84.88749695,-121.35523224,0.193359380000174
-84.91368866,-121.38938904,0.193481450000036
-84.88349915,-121.35191345,0.193481450000036
-84.89578247,-121.41088104,0.193603520000124
-84.94557953,-121.35305786,0.193725590000213
-84.9291687,-121.38881683,0.193725590000213
-84.8746109,-121.35346985,0.193725590000213
-84.90477753,-121.37841034,0.193847660000074
-84.94857788,-121.43102264,0.193969730000163
-84.89154816,-121.3615799,0.194091800000024
-84.89205933,-121.37458038,0.194213870000112
-84.90782928,-121.36837769,0.194213870000112
-84.91687775,-121.37413788,0.194335940000201
-84.93820953,-121.36933899,0.194458010000062
-84.87728119,-121.44969177,0.194458010000062
-84.87400818,-121.35494232,0.194458010000062
-84.89733887,-121.35923004,0.194702150000012
-84.89716339,-121.37030029,0.194702150000012
-84.91516876,-121.37281799,0.1948242200001
-84.90496826,-121.36666107,0.1948242200001
-84.90680695,-121.38159943,0.1948242200001
-84.88442993,-121.35350037,0.194946290000189
-84.94615936,-121.36586761,0.195190430000139
-84.88758087,-121.35138702,0.1953125
-84.90474701,-121.36965179,0.1953125
-84.9081192,-121.37793732,0.1953125
-84.87512207,-121.35402679,0.195434570000089
-84.94976044,-121.36229706,0.195678710000038
-84.90883636,-121.38176727,0.195678710000038
-84.87561798,-121.35733795,0.195678710000038
-84.89491272,-121.37239075,0.195922850000215
-84.94384003,-121.35193634,0.195922850000215
-84.90566254,-121.36470795,0.195922850000215
-84.92371368,-121.37880707,0.196044920000077
-84.89492035,-121.35635376,0.196044920000077
-84.90499115,-121.3669281,0.196044920000077
-84.89798737,-121.37123108,0.196167000000059
-84.90368652,-121.36338806,0.196411140000009
-84.94030762,-121.44506836,0.196411140000009
-84.88703156,-121.35233307,0.196533210000098
-84.92359924,-121.39547729,0.196533210000098
-84.89610291,-121.36849213,0.196533210000098
-84.89608765,-121.35838318,0.196655280000186
-84.8818512,-121.35015106,0.196655280000186
-84.91641998,-121.37203979,0.196777350000048
-84.93256378,-121.40923309,0.196777350000048
-84.91082764,-121.37592316,0.196777350000048
-84.92048645,-121.37766266,0.197265630000174
-84.89192963,-121.35546875,0.197265630000174
-84.90000916,-121.36097717,0.197265630000174
-84.87426758,-121.35273743,0.197265630000174
-84.87210083,-121.35809326,0.197265630000174
-84.89395905,-121.39246368,0.197387700000036
-84.89444733,-121.39849091,0.197387700000036
-84.91757965,-121.3745575,0.197387700000036
-84.90219116,-121.37449646,0.197509770000124
-84.88742828,-121.35778809,0.197509770000124
-84.93473816,-121.44937897,0.197509770000124
-84.93782043,-121.39073181,0.197631840000213
-84.93399048,-121.38559723,0.197631840000213
-84.89608002,-121.3583374,0.197631840000213
-84.94358826,-121.36707306,0.197753910000074
-84.89409637,-121.42384338,0.197753910000074
-84.89968109,-121.36177063,0.197875980000163
-84.91664886,-121.37226105,0.197998050000024
-84.88819885,-121.35431671,0.198120120000112
-84.92585754,-121.38130951,0.198242190000201
-84.9310379,-121.40688324,0.198364260000062
-84.89951324,-121.38973236,0.198608400000012
-84.94113922,-121.42221832,0.198608400000012
-84.8985672,-121.3634491,0.198608400000012
-84.87274933,-121.35038757,0.198852540000189
-84.94111633,-121.43850708,0.198852540000189
-84.94667816,-121.36357117,0.199096680000139
-84.94603729,-121.42713165,0.199096680000139
-84.89746094,-121.37249756,0.19921875
-84.88922882,-121.35796356,0.19921875
-84.87326813,-121.35669708,0.19921875
-84.92241669,-121.37890625,0.199340820000089
-84.89640808,-121.3625412,0.199462890000177
-84.9419632,-121.44444275,0.199462890000177
-84.9109726,-121.35765839,0.199951170000077
-84.8986969,-121.36160278,0.199951170000077
-84.8898468,-121.35681152,0.199951170000077
-84.94834137,-121.35807037,0.200195320000148
-84.92220306,-121.37761688,0.200317390000009
-84.8948288,-121.35414886,0.200317390000009
-84.89019775,-121.36206055,0.200317390000009
-84.92384338,-121.38117218,0.200439460000098
-84.89601135,-121.35974884,0.200439460000098
-84.90122223,-121.35990906,0.200561530000186
-84.88417816,-121.35411072,0.200561530000186
-84.89266205,-121.35949707,0.200561530000186
-84.90261841,-121.36421204,0.200683600000048
-84.8744278,-121.35530853,0.200683600000048
-84.8859787,-121.38733673,0.200805670000136
-84.89766693,-121.37110901,0.200927740000225
-84.90313721,-121.36685181,0.200927740000225
-84.8877182,-121.35561371,0.201049810000086
-84.87020111,-121.35498047,0.201049810000086
-84.89260864,-121.35398865,0.201171880000174
-84.91143799,-121.37954712,0.201171880000174
-84.94824982,-121.44273376,0.201171880000174
-84.89048004,-121.42011261,0.201293950000036
-84.93634796,-121.38855743,0.201293950000036
-84.88343811,-121.3535614,0.201293950000036
-84.87198639,-121.35462952,0.201293950000036
-84.94690704,-121.43686676,0.201293950000036
-84.92732239,-121.35021973,0.201416020000124
-84.89173889,-121.3991394,0.201538090000213
-84.93314362,-121.41010284,0.201538090000213
-84.8897934,-121.35800171,0.201782230000163
-84.89777374,-121.38638306,0.202026370000112
-84.88976288,-121.35227203,0.202026370000112
-84.93934631,-121.373909,0.202148440000201
-84.91616058,-121.38694763,0.202148440000201
-84.92931366,-121.35025787,0.202270510000062
-84.90921021,-121.36862183,0.202392580000151
-84.94776917,-121.35912323,0.202514650000012
-84.9148407,-121.37255096,0.202514650000012
-84.87313843,-121.35323334,0.202514650000012
-84.88362122,-121.35527039,0.2026367200001
-84.93408203,-121.41143799,0.202758790000189
-84.8916626,-121.41596985,0.20288086000005
-84.91851044,-121.37490845,0.20288086000005
-84.94187927,-121.4208374,0.20288086000005
-84.88802338,-121.35240173,0.20288086000005
-84.88993835,-121.42986298,0.203125
-84.94212341,-121.39518738,0.203125
-84.91483307,-121.37252045,0.203491210000038
-84.89067078,-121.3508606,0.203491210000038
-84.91056824,-121.35095215,0.203613280000127
-84.90943146,-121.36269379,0.203613280000127
-84.92845917,-121.38421631,0.203613280000127
-84.90083313,-121.36431122,0.203613280000127
-84.94069672,-121.39261627,0.203735350000215
-84.9336319,-121.39465332,0.203735350000215
-84.92427826,-121.39914703,0.203735350000215
-84.91307831,-121.38221741,0.204101570000148
-84.94484711,-121.39549255,0.204345710000098
-84.89360809,-121.35536957,0.204345710000098
-84.93643188,-121.37467194,0.204833990000225
-84.90718842,-121.36847687,0.204833990000225
-84.92723083,-121.40366364,0.204833990000225
-84.9327774,-121.40962219,0.204833990000225
-84.89177704,-121.35888672,0.204956060000086
-84.94979858,-121.42951965,0.204956060000086
-84.86785126,-121.35134125,0.204956060000086
-84.90986633,-121.37030792,0.205200200000036
-84.87541962,-121.35093689,0.205200200000036
-84.94709778,-121.36093903,0.205322270000124
-84.88391113,-121.3947525,0.205322270000124
-84.94431305,-121.3964386,0.205322270000124
-84.8931427,-121.36174774,0.205444340000213
-84.90319824,-121.35240936,0.205566410000074
-84.89518738,-121.35801697,0.205566410000074
-84.9352417,-121.4105835,0.205688480000163
-84.94455719,-121.36222076,0.205810550000024
-84.88603973,-121.38661957,0.205810550000024
-84.88645172,-121.40084076,0.205810550000024
-84.88165283,-121.35494995,0.205932620000112
-84.9378891,-121.36946106,0.206176760000062
-84.8769989,-121.35032654,0.206176760000062
-84.90982056,-121.35356903,0.206298830000151
-84.88864136,-121.39295959,0.206298830000151
-84.88961792,-121.40630341,0.206298830000151
-84.93998718,-121.4477005,0.206298830000151
-84.9017334,-121.36782074,0.206420900000012
-84.91113281,-121.38236237,0.206420900000012
-84.89620972,-121.3765564,0.2065429700001
-84.91597748,-121.37445831,0.206665040000189
-84.88278961,-121.35028839,0.20678711000005
-84.88124084,-121.35092163,0.20678711000005
-84.94812775,-121.35733795,0.206909180000139
-84.89214325,-121.35823059,0.206909180000139
-84.93849182,-121.39794922,0.207153320000089
-84.87973022,-121.35431671,0.207275390000177
-84.89045715,-121.40302277,0.207397460000038
-84.88925934,-121.35131073,0.207519530000127
-84.93463135,-121.40956116,0.207763670000077
-84.92639923,-121.39938354,0.207885750000059
-84.89479065,-121.3639679,0.208007820000148
-84.93829346,-121.36776733,0.208129890000009
-84.9223175,-121.37886047,0.208374030000186
-84.91747284,-121.38864899,0.208374030000186
-84.91078186,-121.37223053,0.208496100000048
-84.89421082,-121.35899353,0.208496100000048
-84.90962219,-121.38001251,0.208496100000048
-84.87827301,-121.42057037,0.208618170000136
-84.93804169,-121.41133881,0.208862310000086
-84.93605804,-121.36692047,0.209106450000036
-84.88738251,-121.38211823,0.209350590000213
-84.89009857,-121.37310791,0.209594730000163
-84.89582825,-121.36113739,0.209716800000024
-84.93829346,-121.35926819,0.209838870000112
-84.89447021,-121.38188934,0.210205080000151
-84.88378143,-121.39433289,0.210327150000012
-84.9360199,-121.38800049,0.210327150000012
-84.91883087,-121.37767029,0.21069336000005
-84.88574982,-121.40258026,0.210815430000139
-84.8846283,-121.43041229,0.210815430000139
-84.91819763,-121.38674164,0.210815430000139
-84.89919281,-121.36667633,0.210815430000139
-84.9358902,-121.40769196,0.2109375
-84.93492889,-121.35115051,0.211059570000089
-84.90429688,-121.37042999,0.211181640000177
-84.89073944,-121.35623932,0.211181640000177
-84.91060638,-121.37812042,0.211181640000177
-84.90345764,-121.36618805,0.211303710000038
-84.89073944,-121.37010193,0.211303710000038
-84.89911652,-121.36799622,0.211425780000127
-84.91240692,-121.37467957,0.211547850000215
-84.89987183,-121.36473846,0.211547850000215
-84.88046265,-121.44477844,0.211792000000059
-84.94016266,-121.41430664,0.211792000000059
-84.9104538,-121.37335205,0.212036140000009
-84.90175629,-121.36419678,0.212280280000186
-84.94068146,-121.44743347,0.212280280000186
-84.91821289,-121.38400269,0.212402350000048
-84.90773773,-121.35118866,0.212646490000225
-84.89469147,-121.35722351,0.212646490000225
-84.89009857,-121.35546112,0.212768560000086
-84.89134216,-121.36813354,0.213012700000036
-84.8945694,-121.35932922,0.213012700000036
-84.93639374,-121.35188293,0.213134770000124
-84.93392944,-121.35028839,0.213500980000163
-84.91943359,-121.35005951,0.213867190000201
-84.88436127,-121.35141754,0.213989260000062
-84.94042206,-121.35047913,0.214111330000151
-84.90686798,-121.36934662,0.214233400000012
-84.91605377,-121.38034821,0.214233400000012
-84.93714905,-121.35112,0.2143554700001
-84.89367676,-121.35527039,0.21459961000005
-84.93418121,-121.40535736,0.21484375
-84.8657074,-121.35057068,0.21484375
-84.94879913,-121.37068939,0.214965820000089
-84.94876099,-121.42758179,0.214965820000089
-84.93868256,-121.44493866,0.214965820000089
-84.93913269,-121.41278076,0.215332030000127
-84.8966217,-121.35652161,0.215332030000127
-84.93659973,-121.35205078,0.215820320000148
-84.94232178,-121.3529892,0.215942390000009
-84.89647675,-121.37458801,0.216552740000225
-84.94509125,-121.35230255,0.216674810000086
-84.92925262,-121.38607025,0.216674810000086
-84.8877182,-121.35494995,0.216674810000086
-84.87168884,-121.44206238,0.216796880000174
-84.93785095,-121.35154724,0.217041020000124
-84.90068054,-121.35987091,0.217041020000124
-84.87555695,-121.35061646,0.217041020000124
-84.87847137,-121.35211182,0.217651370000112
-84.94303894,-121.44380951,0.217651370000112
-84.94577026,-121.35404205,0.217773440000201
-84.94280243,-121.42137909,0.217773440000201
-84.90718842,-121.36666107,0.217773440000201
-84.89311218,-121.35101318,0.217773440000201
-84.87335205,-121.43656921,0.217895510000062
-84.94564056,-121.3740387,0.218017580000151
-84.87976074,-121.42195129,0.218017580000151
-84.88995361,-121.35523224,0.218017580000151
-84.92008209,-121.3516922,0.218139650000012
-84.94975281,-121.43221283,0.218139650000012
-84.94960022,-121.36733246,0.218383790000189
-84.91835785,-121.35063171,0.218383790000189
-84.91145325,-121.37352753,0.21850586000005
-84.8916626,-121.3502121,0.218627930000139
-84.92182922,-121.35147858,0.218627930000139
-84.92308807,-121.35101318,0.218872070000089
-84.94554901,-121.44917297,0.218872070000089
-84.9161911,-121.38043213,0.218994140000177
-84.94824982,-121.35431671,0.219238280000127
-84.89385223,-121.3509903,0.219604500000059
-84.87393951,-121.4345932,0.219604500000059
-84.92180634,-121.3516922,0.219970710000098
-84.94846344,-121.43013,0.219970710000098
-84.89472961,-121.35041809,0.219970710000098
-84.94889069,-121.35730743,0.220092780000186
-84.94129181,-121.35231018,0.220458990000225
-84.92008972,-121.35035706,0.220581060000086
-84.89359283,-121.35775757,0.220825200000036
-84.91533661,-121.37914276,0.220825200000036
-84.8960495,-121.35176086,0.220947270000124
-84.8965683,-121.35032654,0.221191410000074
-84.89138031,-121.35617065,0.221313480000163
-84.89437103,-121.36460876,0.221435550000024
-84.89150238,-121.37415314,0.221435550000024
-84.88896942,-121.38285065,0.221435550000024
-84.94911957,-121.35752106,0.221679690000201
-84.89040375,-121.35536957,0.221679690000201
-84.9405899,-121.35047913,0.221801760000062
-84.88887024,-121.3516922,0.221923830000151
-84.92057037,-121.35059357,0.221923830000151
-84.88574219,-121.35246277,0.222045900000012
-84.88455963,-121.39727783,0.2221679700001
-84.88864136,-121.35555267,0.2221679700001
-84.94563293,-121.37413025,0.222290040000189
-84.9203186,-121.38983154,0.222290040000189
-84.9440918,-121.42606354,0.22241211000005
-84.89929199,-121.35733032,0.22241211000005
-84.88352966,-121.35086823,0.222534180000139
-84.89499664,-121.35999298,0.22265625
-84.8916626,-121.39705658,0.222778320000089
-84.94621277,-121.35414124,0.222778320000089
-84.88220978,-121.41307068,0.222900390000177
-84.92697144,-121.353508,0.223022460000038
-84.89701843,-121.35530853,0.223144530000127
-84.88507843,-121.40351868,0.223144530000127
-84.92214966,-121.39250183,0.223144530000127
-84.90225983,-121.36086273,0.223388670000077
-84.8944931,-121.36399841,0.223388670000077
-84.9046936,-121.36554718,0.223388670000077
-84.92450714,-121.35191345,0.223510750000059
-84.88716125,-121.35443878,0.223876960000098
-84.88829041,-121.35021973,0.223999030000186
-84.89849854,-121.35154724,0.224243170000136
-84.92556,-121.39755249,0.224487310000086
-84.88883209,-121.35159302,0.224609380000174
-84.87065887,-121.44477844,0.224609380000174
-84.94104767,-121.35066223,0.224609380000174
-84.89176941,-121.35082245,0.224609380000174
-84.89082336,-121.35704041,0.224609380000174
-84.92498779,-121.35214233,0.224731450000036
-84.87844849,-121.41838074,0.224853520000124
-84.89450073,-121.35140228,0.224853520000124
-84.8986969,-121.35302734,0.224975590000213
-84.89467621,-121.38713837,0.225219730000163
-84.89791107,-121.361763,0.225219730000163
-84.9479599,-121.43218231,0.225219730000163
-84.89453125,-121.35012817,0.225341800000024
-84.92424011,-121.35183716,0.225463870000112
-84.89418793,-121.36062622,0.225463870000112
-84.87512207,-121.35321808,0.225463870000112
-84.88941193,-121.36547852,0.225585940000201
-84.92677307,-121.35090637,0.225708010000062
-84.88585663,-121.36927032,0.225952150000012
-84.90525055,-121.36672211,0.225952150000012
-84.89100647,-121.35825348,0.2260742200001
-84.89247131,-121.36302948,0.22631836000005
-84.94695282,-121.35328674,0.226440430000139
-84.90014648,-121.35402679,0.2265625
-84.88691711,-121.35310364,0.226684570000089
-84.94847107,-121.43273926,0.226684570000089
-84.88880157,-121.35150909,0.226806640000177
-84.89082336,-121.36003113,0.226928710000038
-84.89443207,-121.35282898,0.226928710000038
-84.90705872,-121.37204742,0.226928710000038
-84.89034271,-121.35545349,0.227050780000127
-84.89698792,-121.3564682,0.227050780000127
-84.89375305,-121.35813141,0.227172850000215
-84.94940186,-121.43708801,0.227294920000077
-84.87229156,-121.43923187,0.227417000000059
-84.9289093,-121.35366821,0.227539070000148
-84.89636993,-121.36212921,0.227539070000148
-84.88883209,-121.35562897,0.227539070000148
-84.89167786,-121.352211,0.227905280000186
-84.92696381,-121.35208893,0.228027350000048
-84.88694763,-121.35154724,0.228027350000048
-84.92771149,-121.40354156,0.228027350000048
-84.94937134,-121.42806244,0.228027350000048
-84.89321899,-121.35875702,0.228149420000136
-84.89246368,-121.35923004,0.228149420000136
-84.91716003,-121.38765717,0.228149420000136
-84.90886688,-121.37496948,0.228149420000136
-84.89885712,-121.35443115,0.228271490000225
-84.93488312,-121.41464233,0.228393560000086
-84.94795227,-121.35250854,0.228515630000174
-84.94618988,-121.35269928,0.228515630000174
-84.92967987,-121.35266876,0.228515630000174
-84.8889389,-121.35160065,0.228637700000036
-84.89489746,-121.3530426,0.228759770000124
-84.94065857,-121.36647034,0.228881840000213
-84.87178802,-121.4479599,0.229003910000074
-84.89939117,-121.35341644,0.229003910000074
-84.88446808,-121.3737793,0.229125980000163
-84.89231873,-121.39437866,0.229248050000024
-84.93045044,-121.35192108,0.229248050000024
-84.89756775,-121.3692627,0.229370120000112
-84.89640808,-121.35254669,0.229736330000151
-84.89080048,-121.35562134,0.229736330000151
-84.94941711,-121.43135071,0.229736330000151
-84.89032745,-121.38480377,0.229858400000012
-84.94365692,-121.42813873,0.229858400000012
-84.92697906,-121.35077667,0.2299804700001
-84.88892365,-121.35179901,0.230102540000189
-84.88938141,-121.35305786,0.230102540000189
-84.92597198,-121.40418243,0.230102540000189
-84.92971039,-121.35135651,0.23022461000005
-84.91812134,-121.39228058,0.23022461000005
-84.93112946,-121.35365295,0.230346680000139
-84.90104675,-121.35568237,0.230346680000139
-84.89093018,-121.35160065,0.230346680000139
-84.93937683,-121.36157227,0.23046875
-84.89131165,-121.37358856,0.23046875
-84.89849854,-121.36485291,0.230590820000089
-84.9454422,-121.42803955,0.230590820000089
-84.89340973,-121.35192108,0.230712890000177
-84.93226624,-121.41371918,0.230712890000177
-84.89096069,-121.3503418,0.230834960000038
-84.94593811,-121.44882202,0.230834960000038
-84.89212799,-121.37876129,0.231079100000215
-84.90083313,-121.35440063,0.231079100000215
-84.89678192,-121.36377716,0.231079100000215
-84.89463043,-121.35608673,0.231079100000215
-84.93717957,-121.42163849,0.231201170000077
-84.91249084,-121.37303925,0.231323250000059
-84.9159317,-121.37515259,0.231445320000148
-84.89466095,-121.35945129,0.231445320000148
-84.9022522,-121.36798096,0.231445320000148
-84.89855194,-121.35530853,0.231567390000009
-84.89682007,-121.36226654,0.231567390000009
-84.88793182,-121.36963654,0.231811530000186
-84.88356018,-121.40759277,0.231811530000186
-84.94048309,-121.35015106,0.231811530000186
-84.88989258,-121.35227203,0.231933600000048
-84.9412384,-121.42772675,0.231933600000048
-84.88011169,-121.41928101,0.232177740000225
-84.88369751,-121.37637329,0.232421880000174
-84.91320801,-121.3735199,0.232543950000036
-84.8833313,-121.42498016,0.232666020000124
-84.90827179,-121.37161255,0.232666020000124
-84.93261719,-121.3533783,0.232666020000124
