"X","Y","Z"
-84.94410706,-121.3832016,0.5502929700001
-84.945961,-121.39488983,0.55053711000005
-84.94434357,-121.37441254,0.551147460000038
-84.94669342,-121.39571381,0.551757820000148
-84.94487762,-121.39006042,0.552246100000048
-84.9464035,-121.38693237,0.552734380000174
-84.94976044,-121.38894653,0.552856450000036
-84.94934082,-121.36573029,0.553344730000163
-84.94553375,-121.38863373,0.553466800000024
-84.9495697,-121.38871002,0.554321290000189
-84.94790649,-121.36313629,0.554809570000089
-84.9412384,-121.36789703,0.555664070000148
-84.94274902,-121.36743927,0.555908210000098
-84.94458008,-121.39536285,0.555908210000098
-84.94360352,-121.38549805,0.556030280000186
-84.94474792,-121.38736725,0.557250980000163
-84.94333649,-121.37190247,0.557739260000062
-84.94101715,-121.38407898,0.558227540000189
-84.94326782,-121.38478088,0.559570320000148
-84.94718933,-121.37596893,0.559692390000009
-84.94616699,-121.38626099,0.559936530000186
-84.9487381,-121.37425232,0.560180670000136
-84.94657898,-121.37142944,0.560302740000225
-84.93916321,-121.38674164,0.561401370000112
-84.94242859,-121.37548828,0.561889650000012
-84.94937897,-121.39105988,0.5620117200001
-84.94007111,-121.38832855,0.562622070000089
-84.94712067,-121.36910248,0.563232420000077
-84.94261169,-121.37693787,0.563720710000098
-84.94516754,-121.38774109,0.563720710000098
-84.94078827,-121.38614655,0.564208990000225
-84.9489975,-121.39356995,0.564331060000086
-84.94255829,-121.38629913,0.564819340000213
-84.94172668,-121.38749695,0.565307620000112
-84.93704224,-121.38336945,0.565551760000062
-84.9355011,-121.38700867,0.565551760000062
-84.94766235,-121.36676788,0.5659179700001
-84.94541168,-121.37471008,0.5659179700001
-84.93950653,-121.3873291,0.56616211000005
-84.94573975,-121.37194061,0.566772460000038
-84.9371109,-121.38614655,0.566772460000038
-84.94715881,-121.36647034,0.566894530000127
-84.94512939,-121.38291931,0.567138670000077
-84.94880676,-121.36897278,0.568725590000213
-84.94986725,-121.36699677,0.568969730000163
-84.94806671,-121.3945694,0.569335940000201
-84.94924927,-121.37042999,0.5703125
-84.94315338,-121.37322235,0.571044920000077
-84.94898987,-121.36237335,0.571777350000048
-84.94525909,-121.3772583,0.572021490000225
-84.94190979,-121.37239075,0.572265630000174
-84.94341278,-121.37991333,0.573242190000201
-84.94714355,-121.3928299,0.575317390000009
-84.94644165,-121.37789917,0.576538090000213
-84.94487,-121.37957001,0.577270510000062
-84.94780731,-121.38166046,0.5776367200001
-84.94515228,-121.37856293,0.578002930000139
-84.9487381,-121.38368225,0.578002930000139
-84.94703674,-121.39237976,0.578857420000077
-84.94257355,-121.37268829,0.579101570000148
-84.94967651,-121.39083099,0.579345710000098
-84.94371033,-121.39363098,0.579956060000086
-84.94333649,-121.37167358,0.580322270000124
-84.94727325,-121.35826874,0.580688480000163
-84.94756317,-121.38030243,0.580810550000024
-84.94439697,-121.38844299,0.581054690000201
-84.94796753,-121.38304901,0.581176760000062
-84.94615936,-121.36920929,0.58178711000005
-84.94338989,-121.38938904,0.583251960000098
-84.94515991,-121.3755722,0.585205080000151
-84.94969177,-121.35865021,0.586914070000148
-84.94889832,-121.36734772,0.587646490000225
-84.94709015,-121.36875153,0.588989260000062
-84.94393921,-121.36538696,0.5893554700001
-84.94895172,-121.37278748,0.58984375
-84.94348145,-121.37159729,0.590332030000127
-84.94682312,-121.36842346,0.591186530000186
-84.94654083,-121.36940002,0.591796880000174
-84.94439697,-121.36554718,0.592407230000163
-84.94857025,-121.38871765,0.594848640000009
-84.94931793,-121.36737823,0.594970710000098
-84.94963837,-121.36512756,0.595092780000186
-84.94615173,-121.38028717,0.595092780000186
-84.94682312,-121.36702728,0.595458990000225
-84.94304657,-121.37541199,0.595947270000124
-84.94748688,-121.39041138,0.596679690000201
-84.94515991,-121.37944794,0.596801760000062
-84.94843292,-121.37078857,0.597045900000012
-84.94760132,-121.38127136,0.5971679700001
-84.94683838,-121.3657074,0.59765625
-84.94467926,-121.38845825,0.598022460000038
-84.94682312,-121.36566925,0.598876960000098
-84.9493866,-121.36348724,0.599121100000048
-84.94686127,-121.3644104,0.599365240000225
-84.94860077,-121.36444092,0.600097660000074
-84.94460297,-121.36430359,0.600341800000024
-84.94811249,-121.36387634,0.60131836000005
-84.94657898,-121.36431885,0.601806640000177
-84.94967651,-121.38715363,0.602172850000215
-84.9495163,-121.36614227,0.602417000000059
-84.94692993,-121.37654877,0.603027350000048
-84.94554901,-121.39537048,0.603149420000136
-84.94885254,-121.38861084,0.603393560000086
-84.9489212,-121.3973999,0.603515630000174
-84.94727325,-121.3646698,0.606811530000186
-84.9432373,-121.39450073,0.607177740000225
-84.94548035,-121.39192963,0.608154300000024
-84.9447937,-121.37905884,0.608276370000112
-84.94631195,-121.38799286,0.609008790000189
-84.94965363,-121.36743164,0.609252930000139
-84.9496994,-121.38977051,0.609375
-84.94818115,-121.36636353,0.609619140000177
-84.94789124,-121.36759186,0.610229500000059
-84.94599152,-121.37979126,0.610351570000148
-84.94259644,-121.38471985,0.610595710000098
-84.94930267,-121.38926697,0.611328130000174
-84.94573212,-121.38672638,0.611328130000174
-84.94979095,-121.36234283,0.611816410000074
-84.94271088,-121.38037872,0.611816410000074
-84.94625092,-121.39029694,0.612670900000012
-84.94445801,-121.37188721,0.61303711000005
-84.9462204,-121.38754272,0.61303711000005
-84.94232178,-121.3867569,0.614624030000186
-84.94947052,-121.36322784,0.614868170000136
-84.94940948,-121.389328,0.615112310000086
-84.94431305,-121.38717651,0.615356450000036
-84.94567871,-121.38929749,0.616210940000201
-84.94193268,-121.38600159,0.616455080000151
-84.94818115,-121.39302063,0.617065430000139
-84.94441986,-121.3897171,0.617065430000139
-84.93924713,-121.38529968,0.6171875
-84.94625092,-121.37706757,0.617309570000089
-84.94950104,-121.39263916,0.618286140000009
-84.94789886,-121.37982178,0.618896490000225
-84.9487381,-121.39362335,0.6206054700001
-84.94982147,-121.36605835,0.620727540000189
-84.94271851,-121.39064789,0.621337890000177
-84.94780731,-121.36595154,0.621948250000059
-84.94522095,-121.39111328,0.621948250000059
-84.94390869,-121.37834167,0.622070320000148
-84.9437027,-121.37682343,0.622192390000009
-84.94792175,-121.36219025,0.622314460000098
-84.94837189,-121.39588165,0.622558600000048
-84.94233704,-121.38990021,0.623291020000124
-84.94753265,-121.36560059,0.624877930000139
-84.9466629,-121.36904907,0.625488280000127
-84.94538879,-121.36975861,0.625488280000127
-84.94625854,-121.39250946,0.626708990000225
-84.94341278,-121.37638855,0.627441410000074
-84.94699097,-121.39334106,0.628173830000151
-84.93965912,-121.38802338,0.629150390000177
-84.9467392,-121.39057922,0.629394530000127
-84.9468689,-121.37612152,0.631469730000163
-84.94364929,-121.37526703,0.631469730000163
-84.93727875,-121.38735962,0.631591800000024
-84.94838715,-121.36765289,0.631713870000112
-84.94187927,-121.37542725,0.632446290000189
-84.94065094,-121.37461853,0.632934570000089
-84.94996643,-121.39264679,0.633300780000127
-84.94313812,-121.37467957,0.633667000000059
-84.94715881,-121.39369965,0.634643560000086
-84.94206238,-121.37684631,0.635009770000124
-84.94985199,-121.39492798,0.635253910000074
-84.94711304,-121.37473297,0.635986330000151
-84.94954681,-121.3969574,0.638793950000036
-84.94119263,-121.37893677,0.639038090000213
-84.94817352,-121.39234924,0.639404300000024
-84.94949341,-121.36167145,0.639770510000062
-84.9471283,-121.39653778,0.640625
-84.94441223,-121.3634491,0.641601570000148
-84.9467392,-121.3957901,0.642333990000225
-84.94857025,-121.36605835,0.642456060000086
-84.94911194,-121.39121246,0.642578130000174
-84.94606018,-121.36595154,0.643188480000163
-84.94983673,-121.39203644,0.643798830000151
-84.9463501,-121.39176941,0.643920900000012
-84.94612122,-121.39476013,0.644165040000189
-84.94727325,-121.39337158,0.645385750000059
-84.94922638,-121.39102173,0.645874030000186
-84.94152069,-121.39015961,0.645874030000186
-84.94368744,-121.37654114,0.646240240000225
-84.94821167,-121.39470673,0.646606450000036
-84.9490509,-121.39077759,0.647583010000062
-84.94933319,-121.39108276,0.649414070000148
