"X","Y","Z"
-85.0071106,-121.40930176,0.452392580000151
-85.00891876,-121.40328979,0.452758789999962
-85.00746918,-121.40000153,0.453125
-85.00942993,-121.40084076,0.453857420000077
-85.00447845,-121.4016037,0.454101560000026
-85.00086975,-121.3990097,0.454711910000015
-85.00700378,-121.40151978,0.455932620000112
-85.00991821,-121.39836121,0.456054689999974
-85.01029968,-121.40515137,0.4565429700001
-85.00045013,-121.40077209,0.457519530000127
-85.00469208,-121.40035248,0.458862299999964
-85.00054932,-121.40014648,0.459960939999974
-85.00657654,-121.40216827,0.46118163999995
-85.00180817,-121.40260315,0.462402339999926
-85.00003052,-121.40142059,0.462768549999964
-85.00779724,-121.40566254,0.463500979999935
-85.0043335,-121.40126038,0.463867189999974
-85.00063324,-121.39945221,0.464233400000012
-85.00553131,-121.40583038,0.464721680000139
-85.008461,-121.39543915,0.466430660000015
-85.00039673,-121.3996582,0.466674799999964
-85.00231171,-121.40026855,0.467285160000074
-85.00517273,-121.39810181,0.4682617200001
-85.00493622,-121.39832306,0.470458980000103
-85.00090027,-121.39733124,0.471435550000024
-85.00253296,-121.39903259,0.471435550000024
-85.00872803,-121.40183258,0.471679689999974
-85.01187897,-121.40724182,0.473388670000077
-85.00437164,-121.40061188,0.473876949999976
-85.00013733,-121.39993286,0.474487299999964
-85.00695038,-121.39952087,0.474853510000003
-85.00182343,-121.4018631,0.474853510000003
-85.00318909,-121.39618683,0.475341800000024
-85.01425171,-121.40641785,0.475463870000112
-85.00393677,-121.40110779,0.47631836000005
-85.00681305,-121.40019989,0.477905270000065
-85.00527954,-121.39659882,0.4799804700001
-85.00697327,-121.39871216,0.482543940000141
-85.01119232,-121.39936066,0.482666010000003
-85.0044632,-121.39894104,0.483276370000112
-85.01038361,-121.40171051,0.485717770000065
-85.01113129,-121.39920807,0.486938479999935
-85.00689697,-121.39855194,0.487060550000024
-85.00301361,-121.40318298,0.487182620000112
-85.00006104,-121.39885712,0.489257810000026
-85.01191711,-121.40557098,0.489868160000015
-85.00189209,-121.39916229,0.491455080000151
-85.00778961,-121.4030304,0.49194336000005
-85.01437378,-121.40396118,0.492065430000139
-85.01245117,-121.40332794,0.492065430000139
-85.00562286,-121.40242004,0.492919920000077
-85.01023102,-121.40248108,0.493041989999938
-85.0087204,-121.39894867,0.493408199999976
-85.01448059,-121.4033432,0.494384760000003
-85.00630188,-121.39965057,0.494873050000024
-85.01023102,-121.40136719,0.495239260000062
-85.01168823,-121.40592194,0.495361330000151
-85.00872803,-121.39910126,0.49609375
-85.01141357,-121.39724731,0.49633788999995
-85.0068512,-121.39742279,0.496826170000077
-85.01130676,-121.40666199,0.498168940000141
-85.00198364,-121.39862823,0.498291010000003
-85.00826263,-121.40062714,0.498657229999935
-85.00710297,-121.39624786,0.499267580000151
-85.00453949,-121.39624786,0.499633789999962
-85.01010895,-121.40094757,0.50024413999995
-85.00144958,-121.39988708,0.501586910000015
-85.01374054,-121.40498352,0.502197260000003
-85.00460052,-121.39663696,0.502441410000074
-85.00080109,-121.39434814,0.502807620000112
-85.00257111,-121.39550781,0.502929689999974
-85.0111084,-121.39729309,0.503540039999962
-85.01226807,-121.40290833,0.504028320000089
-85.00649261,-121.39846802,0.504516599999988
-85.00076294,-121.39427185,0.505126949999976
-85.00814819,-121.40036774,0.505859370000053
-85.00520325,-121.39354706,0.506347660000074
-85.00009918,-121.39608765,0.5078125
-85.00942993,-121.40299225,0.510498050000024
-85.01051331,-121.39837646,0.511596680000139
