"X","Y","Z"
-85.04714203,-121.39266968,0.00244141000007403
-85.00045776,-121.3629303,0.00927733999992597
-85.00466156,-121.38195038,0.0100097600000026
-85.00505066,-121.38876343,0.0103759799999352
-85.00080109,-121.37814331,0.0106201200001124
-85.00109863,-121.35993195,0.0107421899999736
-85.00166321,-121.38352966,0.0118408200000886
-85.00269318,-121.37130737,0.0119628899999498
-85.03633118,-121.39099121,0.0125732399999379
-85.00480652,-121.38156128,0.012817380000115
-85.00428772,-121.39137268,0.013183589999926
-85.00888824,-121.35694122,0.0133056600000145
-85.00048828,-121.36199951,0.0133056600000145
-85.03871918,-121.39404297,0.0134277300001031
-85.00615692,-121.36720276,0.0135497999999643
-85.00296783,-121.37883759,0.0136718700000529
-85.00649261,-121.39089203,0.0136718700000529
-85.01142883,-121.35690308,0.0137939400001414
-85.00662231,-121.38292694,0.0139160100000026
-85.00623322,-121.35897064,0.0145263700001124
-85.00263977,-121.36380005,0.0146484399999736
-85.00746918,-121.3870697,0.0147705100000621
-85.0015564,-121.40898895,0.0147705100000621
-85.01371002,-121.35688782,0.0150146500000119
-85.00630188,-121.35279846,0.0152587899999617
-85.00978851,-121.37122345,0.0157470700000886
-85.00457764,-121.4149704,0.0157470700000886
-85.00647736,-121.37496948,0.0158691399999498
-85.01096344,-121.35842896,0.0163574200000767
-85.00572205,-121.3602829,0.0166015600000264
-85.0103302,-121.38614655,0.0166015600000264
-85.00778198,-121.3861618,0.016723630000115
-85.00713348,-121.397789,0.016723630000115
-85.00682068,-121.414711,0.0169677700000648
-85.00363922,-121.4105072,0.017089839999926
-85.01207733,-121.37986755,0.0175781200000529
-85.00546265,-121.41188812,0.0179443399999855
-85.01294708,-121.35948181,0.0181884799999352
-85.00125122,-121.36829376,0.0183105500000238
-85.00788116,-121.40267944,0.0183105500000238
-85.01689911,-121.36988831,0.0185546899999736
-85.01650238,-121.36306,0.0187988300001507
-85.01077271,-121.35887146,0.0190429700001005
-85.01043701,-121.39292908,0.0190429700001005
-85.01875305,-121.36283875,0.0191650399999617
-85.0121994,-121.38665771,0.0198974600000383
-85.02046967,-121.36501312,0.0200195300001269
-85.01502228,-121.38426971,0.0200195300001269
-85.01197052,-121.39537811,0.0201415999999881
-85.00953674,-121.40457153,0.0202636700000767
-85.00144958,-121.37832642,0.0203857399999379
-85.016922,-121.37747192,0.020629880000115
-85.00920868,-121.41533661,0.0208740200000648
-85.00128174,-121.38083649,0.0211181600000145
-85.01450348,-121.39531708,0.0212402300001031
-85.01125336,-121.40798187,0.0218505899999855
-85.01006317,-121.41947174,0.021972660000074
-85.01841736,-121.38961792,0.0220947299999352
-85.00106049,-121.37757111,0.0222168000000238
-85.02092743,-121.37963104,0.0224609399999736
-85.0189209,-121.37978363,0.0227050800001507
-85.00618744,-121.37975311,0.0230712899999617
-85.01186371,-121.42080688,0.0238037100000383
-85.01696014,-121.40235901,0.0242919899999379
-85.00225067,-121.37619781,0.0244140600000264
-85.0193634,-121.37705994,0.0246581999999762
-85.00978088,-121.36167145,0.024902339999926
-85.01299286,-121.4164505,0.024902339999926
-85.0039978,-121.37634277,0.024902339999926
-85.01168823,-121.41390228,0.0250244100000145
-85.00034332,-121.37895203,0.0251464800001031
-85.01425171,-121.42128754,0.0251464800001031
-85.00208282,-121.3757019,0.0260009799999352
-85.00692749,-121.37158203,0.0263671899999736
-85.02143097,-121.39444733,0.0264892600000621
-85.01580048,-121.41529083,0.0264892600000621
-85.0031662,-121.37478638,0.0264892600000621
-85.02439117,-121.39151764,0.0269775399999617
-85.00074768,-121.35270691,0.0274658200000886
-85.01254272,-121.38056183,0.0275878899999498
-85.00164795,-121.37243652,0.0283203100000264
-85.00475311,-121.36190796,0.0285644499999762
-85.0118866,-121.37651825,0.0289306600000145
-85.01834869,-121.38835144,0.0290527300001031
-85.01043701,-121.36750031,0.0291747999999643
-85.00640869,-121.37393188,0.029785160000074
-85.0175705,-121.39942169,0.0308837899999617
-85.02227783,-121.40735626,0.0314941399999498
-85.02068329,-121.39720154,0.0321044899999379
-85.01168823,-121.36992645,0.0322265600000264
-85.01869202,-121.39502716,0.032714839999926
-85.01222229,-121.37743378,0.0338134799999352
-85.00208282,-121.38890839,0.0355224600000383
-85.00726318,-121.38568878,0.0382080100000621
-85.00888824,-121.38865662,0.0386962899999617
-85.0004425,-121.36026001,0.0388183600000502
-85.00327301,-121.39234924,0.0394287100000383
-85.00920105,-121.39514923,0.0408935499999643
-85.00711823,-121.39501953,0.0421142600000621
-85.00009155,-121.40303802,0.0443115200000648
-85.01022339,-121.40882111,0.045410160000074
-85.00829315,-121.4068985,0.0457763700001124
-85.0047226,-121.40326691,0.0466308600000502
-85.00634003,-121.40496063,0.0469970700000886
-85.01200104,-121.4101181,0.0484619100000145
-85.01319885,-121.41343689,0.0485839800001031
-85.00684357,-121.40374756,0.0491943399999855
-85.0027771,-121.36702728,0.049316410000074
-85.01129913,-121.40434265,0.0498046899999736
