"X","Y","Z"
-84.9433136,-121.24845123,0.110595710000098
-84.94013214,-121.2492218,0.113891600000215
-84.94544983,-121.24784851,0.119384770000124
-84.94660187,-121.24899292,0.132202150000012
-84.94512939,-121.24793243,0.132690430000139
-84.9493103,-121.24923706,0.134765630000174
-84.94689941,-121.24639893,0.135131840000213
-84.94833374,-121.2484436,0.135498050000024
-84.94889069,-121.24642944,0.1362304700001
-84.9450531,-121.24472809,0.136352540000189
-84.94689178,-121.24636078,0.13647461000005
-84.94892883,-121.24491119,0.136840820000089
-84.94602203,-121.24178314,0.137817390000009
-84.94139099,-121.24282074,0.137939460000098
-84.93726349,-121.24942017,0.138549810000086
-84.93926239,-121.24926758,0.139404300000024
-84.94946289,-121.24284363,0.139648440000201
-84.94963074,-121.24533844,0.139648440000201
-84.94774628,-121.24952698,0.139770510000062
-84.94975281,-121.24933624,0.140014650000012
-84.94730377,-121.24774933,0.140258790000189
-84.94377136,-121.24838257,0.140502930000139
-84.9484024,-121.24452209,0.140625
-84.94773102,-121.2494812,0.141235350000215
-84.93750763,-121.24839783,0.141357420000077
-84.94130707,-121.24675751,0.141601570000148
-84.93852234,-121.24762726,0.142944340000213
-84.94776154,-121.24992371,0.142944340000213
-84.9367981,-121.24655914,0.143310550000024
-84.93585968,-121.24452209,0.143554690000201
-84.94300842,-121.2477417,0.143920900000012
-84.94696045,-121.24884033,0.144775390000177
-84.9389801,-121.24781036,0.145385750000059
-84.9394989,-121.23690033,0.145385750000059
-84.94180298,-121.24562836,0.146118170000136
-84.93778229,-121.23999023,0.146118170000136
-84.94714355,-121.2466507,0.146362310000086
-84.94042969,-121.24880219,0.147216800000024
-84.94992065,-121.24935913,0.147338870000112
-84.94451904,-121.24591827,0.147583010000062
-84.94259644,-121.24333954,0.148071290000189
-84.94879913,-121.24324799,0.148071290000189
-84.93649292,-121.2463913,0.148315430000139
-84.94120026,-121.24778748,0.1484375
-84.94966125,-121.24906158,0.148559570000089
-84.93702698,-121.24513245,0.149047850000215
-84.94895935,-121.24725342,0.149536140000009
-84.94481659,-121.24360657,0.149536140000009
