"X","Y","Z"
-85.01558685,-121.24262238,0.251831049999964
-85.00673676,-121.23564148,0.25756836000005
-85.01437378,-121.2390976,0.258789060000026
-85.00353241,-121.23371124,0.259887690000141
-85.00119019,-121.23609924,0.260986330000151
-85.0039978,-121.23391724,0.26147461000005
-85.00115967,-121.22853851,0.262451170000077
-85.01551819,-121.2410202,0.262573239999938
-85.00652313,-121.24072266,0.262695310000026
-85.02541351,-121.24456787,0.263061520000065
-85.02169037,-121.24344635,0.263183589999926
-85.00467682,-121.23562622,0.263549799999964
-85.0027771,-121.23204803,0.263916010000003
-85.00801849,-121.23246002,0.264160160000074
-85.01264191,-121.24436951,0.264404300000024
-85.00653839,-121.2394104,0.264648439999974
-85.00485992,-121.23709106,0.264770510000062
-85.00489807,-121.23583984,0.265014650000012
-85.00718689,-121.24240875,0.265258789999962
-85.00444794,-121.23406219,0.265502930000139
-85.01000977,-121.24022675,0.265747070000089
-85.00390625,-121.2352829,0.265747070000089
-85.01528168,-121.23963928,0.265991210000038
-85.00166321,-121.24269104,0.266479489999938
-85.00492859,-121.23426819,0.266967770000065
-85.01828766,-121.24645233,0.267578120000053
-85.00961304,-121.23613739,0.268066410000074
-85.0253067,-121.24562073,0.2690429700001
-85.02777863,-121.24562073,0.271606440000141
-85.00270081,-121.23178864,0.271850589999985
-85.00372314,-121.23104858,0.272338870000112
-85.02020264,-121.23983765,0.272583010000062
-85.00927734,-121.23697662,0.272583010000062
-85.00125885,-121.22972107,0.272583010000062
-85.02160645,-121.24208832,0.274169920000077
-85.01248932,-121.23751068,0.274902339999926
-85.00376892,-121.22846222,0.275268549999964
-85.02224731,-121.24481201,0.275756839999985
-85.02805328,-121.24323273,0.276245120000112
-85.0013504,-121.22557831,0.276611330000151
-85.01033783,-121.23361969,0.276977539999962
-85.02670288,-121.24616241,0.27709961000005
-85.00575256,-121.22846222,0.27734375
-85.00247955,-121.22884369,0.27758788999995
-85.02420044,-121.2457962,0.278076170000077
-85.00296021,-121.22907257,0.278808589999926
-85.0009079,-121.23075104,0.278808589999926
-85.00405884,-121.22583771,0.279174799999964
-85.02204895,-121.24217987,0.279418940000141
-85.00644684,-121.22888947,0.280029300000024
-85.00926208,-121.23442841,0.281738280000127
-85.0043869,-121.23001099,0.282104489999938
-85.03251648,-121.24967194,0.282836910000015
-85.02114868,-121.23753357,0.282958980000103
-85.02720642,-121.24372101,0.283325190000141
-85.00244904,-121.22763824,0.283691410000074
-85.00959778,-121.23061371,0.284179689999974
-85.00608826,-121.23100281,0.284179689999974
-85.01569366,-121.23554993,0.2846679700001
-85.02845001,-121.24320221,0.285278320000089
-85.01422119,-121.23446655,0.285278320000089
-85.01571655,-121.23426056,0.285644530000127
-85.01686096,-121.23753357,0.286254880000115
-85.00245667,-121.22631073,0.286254880000115
-85.00565338,-121.22814941,0.286499020000065
-85.00565338,-121.23589325,0.287109370000053
-85.00395966,-121.22577667,0.288452150000012
-85.02333069,-121.23738861,0.289550780000127
-85.02129364,-121.23880768,0.289794920000077
-85.02435303,-121.23690033,0.290039060000026
-85.02008057,-121.23671722,0.291503910000074
-85.00583649,-121.2282486,0.291503910000074
-85.00208282,-121.22833252,0.29272461000005
-85.02571106,-121.2401123,0.292846680000139
-85.01886749,-121.23459625,0.293945310000026
-85.00966644,-121.23277283,0.294677730000103
-85.03334045,-121.2432785,0.295043940000141
-85.0141983,-121.23164368,0.295532229999935
-85.00572968,-121.23036194,0.295654300000024
-85.03552246,-121.24452209,0.297607420000077
-85.0320816,-121.24237823,0.298583980000103
-85.02191162,-121.23898315,0.30053711000005
-85.00818634,-121.22949219,0.301879880000115
-85.04382324,-121.24938965,0.302368160000015
-85.03172302,-121.24342346,0.304809570000089
-85.01870728,-121.23571777,0.305175780000127
-85.04456329,-121.24855804,0.305664060000026
-85.02921295,-121.2432785,0.306518549999964
-85.03337097,-121.24590302,0.306884760000003
-85.04203033,-121.24810028,0.309570310000026
-85.04100037,-121.24880219,0.310058589999926
-85.02703857,-121.23906708,0.310668940000141
-85.03434753,-121.24504852,0.310913089999985
-85.00411987,-121.22801971,0.3120117200001
-85.01651001,-121.23166656,0.31225586000005
-85.01647186,-121.23267365,0.312377930000139
-85.01596832,-121.23236084,0.313598630000115
-85.00221252,-121.22411346,0.314941410000074
-85.00411987,-121.22666931,0.315307620000112
-85.01880646,-121.2366333,0.3159179700001
-85.01657867,-121.23552704,0.31665038999995
-85.01052856,-121.22905731,0.317138670000077
-85.01097107,-121.23082733,0.317260739999938
-85.01416016,-121.23267365,0.317504880000115
-85.02275085,-121.23770142,0.317749020000065
-85.02078247,-121.23661804,0.318237299999964
-85.00035858,-121.22566986,0.319213870000112
-85.00853729,-121.22792816,0.319335939999974
-85.00872803,-121.22940826,0.320190430000139
-85.02906799,-121.24147797,0.323242189999974
-85.02153778,-121.23445892,0.3237304700001
-85.0374527,-121.24495697,0.32446288999995
-85.04457855,-121.2481308,0.326660160000074
-85.03398895,-121.2430191,0.326904300000024
-85.02690125,-121.23751831,0.327392580000151
-85.02440643,-121.23716736,0.327758789999962
-85.0430603,-121.24826813,0.32836913999995
-85.03450012,-121.24198914,0.32836913999995
-85.00200653,-121.2406311,0.329956049999964
-85.00376129,-121.24041748,0.330688479999935
-85.03000641,-121.24047852,0.33178711000005
-85.03048706,-121.24069977,0.333251949999976
-85.01035309,-121.2440033,0.334838870000112
-85.0265274,-121.2385025,0.335327150000012
-85.00936127,-121.24343872,0.335571289999962
