"X","Y","Z"
-84.98786163,-121.45800018,0.250122070000089
-84.96089935,-121.45323181,0.250122070000089
-84.98371887,-121.45562744,0.250366210000038
-84.98671722,-121.46237183,0.250610350000215
-84.97080994,-121.45491028,0.250610350000215
-84.98944855,-121.46365356,0.250732420000077
-84.99220276,-121.4733963,0.250732420000077
-84.99938965,-121.45948029,0.250854500000059
-84.98780823,-121.47505951,0.250854500000059
-84.99828339,-121.45536041,0.250976570000148
-84.98731995,-121.47177124,0.251098640000009
-84.96639252,-121.45081329,0.251342780000186
-84.98834229,-121.45729828,0.251342780000186
-84.98381805,-121.47174835,0.251464850000048
-84.98779297,-121.45163727,0.251708990000225
-84.99092102,-121.47406006,0.251708990000225
-84.9876709,-121.45800781,0.251831060000086
-84.99025726,-121.47627258,0.251953130000174
-84.99060059,-121.46552277,0.252197270000124
-84.99291992,-121.45871735,0.252197270000124
-84.98761749,-121.474823,0.252319340000213
-84.97129822,-121.45572662,0.252441410000074
-84.99196625,-121.47064972,0.252563480000163
-84.98999786,-121.45391083,0.252563480000163
-84.99118805,-121.47434998,0.252929690000201
-84.98774719,-121.46869659,0.253295900000012
-84.98661041,-121.45619965,0.25366211000005
-84.99111176,-121.46607971,0.25390625
-84.9807663,-121.46678162,0.25390625
-84.99156952,-121.46987915,0.254028320000089
-84.98901367,-121.47695923,0.254028320000089
-84.99050903,-121.47080994,0.254272460000038
-84.99266052,-121.45870972,0.254760750000059
-84.98831177,-121.45722198,0.254882820000148
-84.98853302,-121.4651413,0.255249030000186
-84.98738098,-121.45552063,0.255249030000186
-84.99432373,-121.45983887,0.255371100000048
-84.98665619,-121.45623016,0.255371100000048
-84.99362183,-121.4730835,0.255371100000048
-84.99165344,-121.47267151,0.255493170000136
-84.9901886,-121.47857666,0.255737310000086
-84.98621368,-121.46381378,0.255859380000174
-84.98607635,-121.4548111,0.255859380000174
-84.9799118,-121.46573639,0.255981450000036
-84.99104309,-121.47438812,0.256225590000213
-84.99320984,-121.46929932,0.256713870000112
-84.99310303,-121.48033142,0.256835940000201
-84.99299622,-121.47205353,0.256958010000062
-84.99329376,-121.47483063,0.257202150000012
-84.99263,-121.45865631,0.257202150000012
-84.97930908,-121.46446228,0.257446290000189
-84.9937973,-121.47814178,0.25756836000005
-84.97759247,-121.45561981,0.257690430000139
-84.98603821,-121.47476959,0.2578125
-84.99054718,-121.46208954,0.257934570000089
-84.99371338,-121.47312164,0.258178710000038
-84.99240875,-121.45935059,0.258544920000077
-84.99260712,-121.46803284,0.258544920000077
-84.98005676,-121.45941925,0.258667000000059
-84.99514008,-121.46401215,0.258789070000148
-84.98304749,-121.45651245,0.259033210000098
-84.99075317,-121.45049286,0.259155280000186
-84.97958374,-121.45539093,0.259277350000048
-84.98364258,-121.45543671,0.259277350000048
-84.98992157,-121.46105957,0.259521490000225
-84.97376251,-121.45928955,0.259765630000174
-84.99398804,-121.47341919,0.259887700000036
-84.99056244,-121.48193359,0.259887700000036
-84.99627686,-121.47937012,0.260009770000124
-84.99362183,-121.46157837,0.260375980000163
-84.98721313,-121.4801712,0.260498050000024
-84.99044037,-121.45924377,0.260742190000201
-84.99204254,-121.46011353,0.260864260000062
-84.98709106,-121.45935059,0.260864260000062
-84.99147034,-121.48052216,0.261352540000189
-84.98171234,-121.45880127,0.261352540000189
-84.9928894,-121.46884155,0.26147461000005
-84.9958725,-121.47885895,0.26147461000005
-84.9881897,-121.45844269,0.261596680000139
-84.98930359,-121.479599,0.261962890000177
-84.99388123,-121.46044159,0.262084960000038
-84.99201965,-121.46427155,0.262329100000215
-84.99347687,-121.47767639,0.262329100000215
-84.98618317,-121.47811127,0.262573250000059
-84.99391937,-121.46160126,0.262573250000059
-84.99446106,-121.45050049,0.262695320000148
-84.98217773,-121.47479248,0.262695320000148
-84.99181366,-121.46032715,0.262817390000009
-84.9953537,-121.45378113,0.262817390000009
-84.99260712,-121.47937012,0.262817390000009
-84.9940567,-121.47045898,0.262939460000098
-84.99635315,-121.47966766,0.262939460000098
-84.98686981,-121.45359802,0.263427740000225
-84.99594879,-121.47042847,0.263549810000086
-84.99906158,-121.46697235,0.263671880000174
-84.99294281,-121.46587372,0.263793950000036
-84.97129059,-121.45887756,0.263793950000036
-84.99040985,-121.45915985,0.263916020000124
-84.98576355,-121.4776001,0.264038090000213
-84.99456787,-121.47102356,0.264404300000024
-84.98825073,-121.45246887,0.264648440000201
-84.99198914,-121.47834778,0.264648440000201
-84.98536682,-121.46790314,0.264892580000151
-84.97910309,-121.47006989,0.264892580000151
-84.99025726,-121.47821808,0.264892580000151
-84.99230194,-121.4578476,0.265014650000012
-84.99375153,-121.46112061,0.2651367200001
-84.98692322,-121.45362854,0.265258790000189
-84.99226379,-121.45584869,0.26538086000005
-84.99523926,-121.46463013,0.265502930000139
-84.98828888,-121.45471191,0.265502930000139
-84.99368286,-121.46671295,0.265502930000139
-84.98760223,-121.48027039,0.265502930000139
-84.9991684,-121.466362,0.265625
-84.99478149,-121.45491791,0.265625
-84.98415375,-121.46684265,0.265625
-84.98738861,-121.47675323,0.265747070000089
-84.99710846,-121.4807663,0.265747070000089
-84.9911499,-121.47424316,0.265747070000089
-84.98420715,-121.4570694,0.265869140000177
-84.97107697,-121.46192169,0.265869140000177
-84.99556732,-121.47118378,0.265991210000038
-84.99507904,-121.47158813,0.266113280000127
-84.99784088,-121.48435211,0.266113280000127
-84.99508667,-121.47486115,0.266601570000148
-84.98943329,-121.45735931,0.266601570000148
-84.99845123,-121.48014832,0.267211920000136
-84.99762726,-121.4694519,0.267211920000136
-84.99104309,-121.46276855,0.267456060000086
-84.99578857,-121.47267151,0.267578130000174
-84.98993683,-121.47271729,0.267700200000036
-84.99227142,-121.45452118,0.267822270000124
-84.97247314,-121.45980835,0.267822270000124
-84.99230957,-121.47892761,0.268066410000074
-84.98143005,-121.47055054,0.268310550000024
-84.99497223,-121.47296906,0.268310550000024
-84.9890213,-121.4761734,0.268554690000201
-84.99578857,-121.46086121,0.268554690000201
-84.99433899,-121.47885132,0.268798830000151
-84.99786377,-121.47886658,0.268920900000012
-84.99658966,-121.45185852,0.2690429700001
-84.99671936,-121.47427368,0.2690429700001
-84.98545837,-121.45131683,0.2690429700001
-84.97273254,-121.46009064,0.2690429700001
-84.98461914,-121.4587326,0.269165040000189
-84.98368073,-121.47425079,0.269165040000189
-84.99001312,-121.46070862,0.26953125
-84.98996735,-121.47115326,0.269653320000089
-84.9848175,-121.47258759,0.269653320000089
-84.99137115,-121.47691345,0.269653320000089
-84.97538757,-121.46333313,0.269653320000089
-84.99104309,-121.47660065,0.269897460000038
-84.96159363,-121.46433258,0.270019530000127
-84.98734283,-121.45928192,0.270141600000215
-84.99223328,-121.47846222,0.270141600000215
-84.99617767,-121.48152161,0.270263670000077
-84.98995209,-121.47776794,0.270263670000077
-84.99633789,-121.47651672,0.270751960000098
-84.99636841,-121.46959686,0.270751960000098
-84.98282623,-121.47296143,0.270996100000048
-84.97145844,-121.45802307,0.271118170000136
-84.98441315,-121.47207642,0.271240240000225
-84.99320221,-121.46875763,0.271240240000225
-84.99752045,-121.48088837,0.271240240000225
-84.9887085,-121.45887756,0.271362310000086
-84.97953796,-121.47019958,0.271362310000086
-84.9921875,-121.47846222,0.271362310000086
-84.99108887,-121.4588623,0.271484380000174
-84.98828125,-121.48368073,0.271606450000036
-84.99310303,-121.46154022,0.271728520000124
-84.99733734,-121.45079041,0.271972660000074
-84.98887634,-121.47621155,0.271972660000074
-84.99375916,-121.47615051,0.272094730000163
-84.99098206,-121.48790741,0.272216800000024
-84.9848938,-121.45030975,0.272338870000112
-84.99820709,-121.48220825,0.272338870000112
-84.98378754,-121.47406006,0.272460940000201
-84.98296356,-121.4782486,0.272460940000201
-84.99333954,-121.48033142,0.272583010000062
-84.98403931,-121.4598465,0.272705080000151
-84.99514008,-121.48047638,0.272705080000151
-84.97393799,-121.46378326,0.272705080000151
-84.98313904,-121.46974945,0.272827150000012
-84.99137115,-121.47992706,0.2729492200001
-84.99504089,-121.45217896,0.273071290000189
-84.99648285,-121.48209381,0.27319336000005
-84.989151,-121.48275757,0.27319336000005
-84.99717712,-121.46302795,0.273315430000139
-84.9912262,-121.46588135,0.2734375
-84.99352264,-121.48365021,0.273559570000089
-84.99214935,-121.47022247,0.273559570000089
-84.99949646,-121.46869659,0.273681640000177
-84.98716736,-121.47634888,0.273803710000038
-84.99803162,-121.48197174,0.274169920000077
-84.98143005,-121.47615051,0.274292000000059
-84.9969635,-121.48290253,0.274414070000148
-84.99732971,-121.47212982,0.274536140000009
-84.99420166,-121.4733963,0.274658210000098
-84.98724365,-121.48213959,0.274780280000186
-84.98593903,-121.48278809,0.274780280000186
-84.99137115,-121.45675659,0.274902350000048
-84.99031067,-121.45847321,0.274902350000048
-84.9972229,-121.46604156,0.274902350000048
-84.98963928,-121.47731018,0.275024420000136
-84.95095825,-121.467453,0.275024420000136
-84.97968292,-121.4618988,0.275146490000225
-84.98632813,-121.47805786,0.275268560000086
-84.99053955,-121.47447968,0.275512700000036
-84.99791718,-121.48399353,0.275634770000124
-84.99172211,-121.47650146,0.276000980000163
-84.98523712,-121.47296906,0.276000980000163
-84.98574829,-121.48253632,0.276000980000163
-84.99401093,-121.47315979,0.276123050000024
-84.99278259,-121.45900726,0.276245120000112
-84.98574829,-121.45696259,0.276245120000112
-84.98683167,-121.48162079,0.276245120000112
-84.99922943,-121.46868896,0.276245120000112
-84.99191284,-121.47823334,0.2768554700001
-84.9881134,-121.47194672,0.2768554700001
-84.99791718,-121.48124695,0.276977540000189
-84.99356079,-121.46411896,0.27709961000005
-84.9571991,-121.46549225,0.27709961000005
-84.98018646,-121.47709656,0.277221680000139
-84.98561859,-121.46350098,0.27734375
-84.99864197,-121.4850769,0.27734375
-84.99273682,-121.45996857,0.277465820000089
-84.99697876,-121.47741699,0.277465820000089
-84.98645782,-121.45803833,0.277709960000038
-84.98480988,-121.47270966,0.277709960000038
-84.98348236,-121.46733856,0.277832030000127
-84.99636078,-121.47541046,0.277954100000215
-84.99149323,-121.47724915,0.277954100000215
-84.965271,-121.4693222,0.277954100000215
-84.98213959,-121.47174835,0.278076170000077
-84.98513794,-121.48152161,0.278076170000077
-84.98200226,-121.47374725,0.278564460000098
-84.99884796,-121.48284912,0.278564460000098
-84.97580719,-121.46304321,0.278686530000186
-84.99272156,-121.45993042,0.278808600000048
-84.99928284,-121.47476196,0.278930670000136
-84.98706818,-121.47315216,0.278930670000136
-84.98088837,-121.47843933,0.278930670000136
-84.99217987,-121.46115112,0.279052740000225
-84.99656677,-121.47691345,0.279052740000225
-84.98562622,-121.45648956,0.279174810000086
-84.99286652,-121.47939301,0.279296880000174
-84.98487091,-121.47041321,0.279541020000124
-84.99668121,-121.48220062,0.279663090000213
-84.99144745,-121.46573639,0.279907230000163
-84.98155212,-121.46721649,0.279907230000163
-84.98040771,-121.4688797,0.279907230000163
-84.98403168,-121.47718811,0.279907230000163
-84.98365021,-121.47891998,0.280151370000112
-84.98947906,-121.47477722,0.280517580000151
-84.9952774,-121.47157288,0.280639650000012
-84.99230194,-121.46427155,0.280639650000012
-84.99289703,-121.46161652,0.2807617200001
-84.9910202,-121.46195221,0.2807617200001
-84.98555756,-121.47080231,0.2807617200001
-84.97106171,-121.46768188,0.2807617200001
-84.97721863,-121.46247101,0.280883790000189
-84.9957428,-121.47746277,0.28100586000005
-84.9838028,-121.47091675,0.28100586000005
-84.99594879,-121.46961975,0.281127930000139
-84.98068237,-121.46916962,0.281127930000139
-84.99089813,-121.47650146,0.28125
-84.99031067,-121.47770691,0.281494140000177
-84.97786713,-121.47322083,0.281616210000038
-84.98477173,-121.47802734,0.281616210000038
-84.99642944,-121.47342682,0.281860350000215
-84.99629974,-121.48471069,0.281860350000215
-84.99889374,-121.47412872,0.281982420000077
-84.98564148,-121.45101929,0.282104500000059
-84.9863205,-121.47440338,0.282104500000059
-84.99323273,-121.48246765,0.282348640000009
-84.99188995,-121.46105194,0.282470710000098
-84.98251343,-121.4720993,0.282836920000136
-84.99517822,-121.46343231,0.282836920000136
-84.9952774,-121.46608734,0.282958990000225
-84.98879242,-121.45278168,0.282958990000225
-84.98493195,-121.46024323,0.282958990000225
-84.98834991,-121.47782898,0.283325200000036
-84.97588348,-121.47058868,0.283569340000213
-84.95375061,-121.4662323,0.283569340000213
-84.98284149,-121.4779129,0.283691410000074
-84.99891663,-121.47441101,0.283813480000163
-84.99684143,-121.46005249,0.283813480000163
-84.98716736,-121.46733856,0.283935550000024
-84.99755096,-121.46954346,0.283935550000024
-84.98368073,-121.47370911,0.283935550000024
-84.99790192,-121.48110199,0.283935550000024
-84.99714661,-121.4658432,0.283935550000024
-84.99173737,-121.48287964,0.284057620000112
-84.9686203,-121.46829987,0.284179690000201
-84.99107361,-121.45623779,0.284301760000062
-84.96140289,-121.45091248,0.284790040000189
-84.98641205,-121.47770691,0.285034180000139
-84.97637939,-121.47115326,0.285034180000139
-84.98330688,-121.47570801,0.28515625
-84.99510956,-121.48516083,0.28515625
-84.9990921,-121.48573303,0.285278320000089
-84.966362,-121.45832825,0.285522460000038
-84.95831299,-121.46482849,0.285522460000038
-84.99575043,-121.4565506,0.285644530000127
-84.99086761,-121.45298767,0.285644530000127
-84.99224854,-121.48343658,0.285766600000215
-84.97911835,-121.47187805,0.286132820000148
-84.99497223,-121.46810913,0.286254890000009
-84.97688293,-121.47171021,0.286254890000009
-84.99903107,-121.47721863,0.286499030000186
-84.9927063,-121.46192169,0.286621100000048
-84.98468781,-121.47783661,0.286621100000048
-84.9675293,-121.45993805,0.286743170000136
-84.97908783,-121.46173096,0.286865240000225
-84.99653625,-121.47503662,0.286865240000225
-84.99469757,-121.48465729,0.286987310000086
-84.98931122,-121.47756958,0.287109380000174
-84.99172211,-121.48039246,0.287475590000213
-84.97937012,-121.47242737,0.287597660000074
-84.99591064,-121.46945953,0.287719730000163
-84.97712708,-121.47225189,0.287719730000163
-84.98739624,-121.46272278,0.287719730000163
-84.98319244,-121.4782486,0.287963870000112
-84.99658966,-121.47805786,0.287963870000112
-84.99887085,-121.46006775,0.288085940000201
-84.99929047,-121.48101807,0.288085940000201
-84.96666718,-121.45864105,0.288208010000062
-84.99033356,-121.48658752,0.288330080000151
-84.99214935,-121.46659851,0.288452150000012
-84.98339844,-121.47432709,0.288452150000012
-84.9956665,-121.48576355,0.288452150000012
-84.99478149,-121.48744202,0.288452150000012
-84.99894714,-121.48551941,0.2885742200001
-84.99488831,-121.46334839,0.2885742200001
-84.99143982,-121.48542786,0.28881836000005
-84.95926666,-121.46457672,0.28881836000005
-84.99076843,-121.45880127,0.2890625
-84.98444366,-121.47257996,0.289306640000177
-84.98547363,-121.48171234,0.289306640000177
-84.99550629,-121.46896362,0.289428710000038
-84.99938965,-121.48355865,0.289550780000127
-84.99243164,-121.46531677,0.289672850000215
-84.97541046,-121.46939087,0.289794920000077
-84.99980164,-121.47531891,0.290161140000009
-84.99633789,-121.48432922,0.290161140000009
-84.994133,-121.48365784,0.290283210000098
-84.9932785,-121.46251678,0.290405280000186
-84.99217224,-121.48326111,0.290527350000048
-84.99082184,-121.48439789,0.290649420000136
-84.9872818,-121.48162079,0.290771490000225
-84.97859192,-121.47416687,0.290893560000086
-84.98664856,-121.48332977,0.291015630000174
-84.97132111,-121.46382141,0.291137700000036
-84.99983978,-121.47534943,0.291503910000074
-84.99085236,-121.45584106,0.292358400000012
-84.9921875,-121.48052216,0.292358400000012
-84.9865036,-121.48911285,0.292358400000012
-84.99997711,-121.48992157,0.2924804700001
-84.9895401,-121.45674133,0.292602540000189
-84.98496246,-121.46611023,0.292602540000189
-84.98648071,-121.48309326,0.29272461000005
-84.98513031,-121.48423767,0.29272461000005
-84.97602844,-121.4659729,0.29272461000005
-84.98932648,-121.47879791,0.29296875
-84.98400116,-121.47637939,0.293212890000177
-84.99468994,-121.46492767,0.293334960000038
-84.98574066,-121.47676849,0.293334960000038
-84.9995575,-121.48613739,0.293579100000215
-84.99092102,-121.45561981,0.293823250000059
-84.99246216,-121.4808197,0.293823250000059
-84.99677277,-121.4706192,0.293945320000148
-84.99822998,-121.48728943,0.294067390000009
-84.98671722,-121.48062134,0.294311530000186
-84.98584747,-121.48532104,0.294433600000048
-84.98802948,-121.47672272,0.294555670000136
-84.99494171,-121.48478699,0.294677740000225
-84.99317932,-121.46233368,0.294921880000174
-84.96595764,-121.45767975,0.295043950000036
-84.98922729,-121.47730255,0.295288090000213
-84.99939728,-121.48890686,0.295288090000213
-84.99768066,-121.46920776,0.295410160000074
-84.99118042,-121.4561615,0.295532230000163
-84.97650146,-121.46582031,0.295532230000163
-84.98655701,-121.48639679,0.295654300000024
-84.9822464,-121.47102356,0.295776370000112
-84.9903183,-121.48017883,0.295898440000201
-84.99790955,-121.48905182,0.296020510000062
-84.99819946,-121.48011017,0.296020510000062
-84.99236298,-121.46511078,0.296142580000151
-84.98325348,-121.46659088,0.296264650000012
-84.98281097,-121.48336029,0.2963867200001
-84.98343658,-121.47538757,0.296752930000139
-84.99971771,-121.46939087,0.296875
-84.99008179,-121.45159149,0.297119140000177
-84.98168945,-121.47550964,0.297241210000038
-84.99080658,-121.45516205,0.297363280000127
-84.99191284,-121.48282623,0.297363280000127
-84.98207092,-121.47077942,0.297607420000077
-84.98438263,-121.48300171,0.297607420000077
-84.99434662,-121.45819855,0.297729500000059
-84.9808197,-121.46446228,0.297729500000059
-84.99684906,-121.48724365,0.297851570000148
-84.98352051,-121.48444366,0.297851570000148
-84.98216248,-121.47631073,0.298217780000186
-84.99189758,-121.46392059,0.298583990000225
-84.99152374,-121.48207855,0.299072270000124
-84.99549866,-121.46736145,0.299316410000074
-84.98034668,-121.46791077,0.299438480000163
-84.98175812,-121.47881317,0.299682620000112
-84.99954987,-121.4659729,0.299804690000201
-84.99240112,-121.4550705,0.299804690000201
-84.97814941,-121.46723938,0.299804690000201
-84.99532318,-121.4851532,0.299926760000062
-84.97998047,-121.47290802,0.300170900000012
-84.98135376,-121.48104095,0.300170900000012
-84.99935913,-121.49149323,0.300415040000189
-84.99156189,-121.48210144,0.300415040000189
-84.98349762,-121.47293854,0.30053711000005
-84.98018646,-121.47042084,0.300659180000139
-84.99143982,-121.46868134,0.30078125
-84.99466705,-121.45851898,0.300903320000089
-84.99777222,-121.4661026,0.301757820000148
-84.99337769,-121.4850235,0.301757820000148
-84.9994278,-121.46868896,0.301879890000009
-84.97889709,-121.47460938,0.302124030000186
-84.99075317,-121.47412109,0.302246100000048
-84.99852753,-121.48995209,0.302246100000048
-84.98087311,-121.46875,0.302368170000136
-84.99449158,-121.45828247,0.302490240000225
-84.97737122,-121.46871948,0.302490240000225
-84.96822357,-121.46794128,0.302734380000174
-84.97712708,-121.46544647,0.302856450000036
-84.99993134,-121.47251892,0.303466800000024
-84.9822464,-121.4708786,0.303588870000112
-84.99188995,-121.48242188,0.303588870000112
-84.97966766,-121.47820282,0.303588870000112
-84.9796524,-121.47218323,0.303833010000062
-84.97920227,-121.47466278,0.303833010000062
-84.98764801,-121.47908783,0.304321290000189
-84.97762299,-121.46626282,0.304321290000189
-84.99591064,-121.48576355,0.30444336000005
-84.99546814,-121.48822784,0.30444336000005
-84.99301147,-121.46534729,0.3046875
-84.99391937,-121.46002197,0.3046875
-84.98300934,-121.47447205,0.304809570000089
-84.99085999,-121.46396637,0.304809570000089
-84.98258972,-121.4766922,0.304931640000177
-84.99166107,-121.4538269,0.305053710000038
-84.99983215,-121.46434021,0.305175780000127
-84.97946167,-121.47519684,0.305297850000215
-84.99796295,-121.46962738,0.305419920000077
-84.98902893,-121.48121643,0.305664070000148
-84.98644257,-121.48552704,0.305664070000148
-84.98616028,-121.47949219,0.305786140000009
-84.98375702,-121.47830963,0.306152350000048
-84.99376678,-121.48512268,0.306518560000086
-84.98842621,-121.4829483,0.306640630000174
-84.99263763,-121.45794678,0.306762700000036
-84.9916687,-121.46723175,0.307006840000213
-84.9984436,-121.48976135,0.307006840000213
-84.99176788,-121.48522186,0.307006840000213
-84.99967194,-121.46721649,0.307617190000201
-84.99816132,-121.46742249,0.307617190000201
-84.99289703,-121.46150208,0.307861330000151
-84.99140167,-121.48721313,0.307983400000012
-84.99034882,-121.46398926,0.3081054700001
-84.99449158,-121.48619843,0.308227540000189
-84.99030304,-121.47039032,0.30859375
-84.99092102,-121.48391724,0.30859375
-84.99590302,-121.46852112,0.308959960000038
-84.9897995,-121.45349121,0.308959960000038
-84.99807739,-121.49201965,0.308959960000038
-84.99449921,-121.46414948,0.309326170000077
-84.99078369,-121.48918915,0.309326170000077
-84.99880219,-121.46163177,0.309326170000077
-84.99112701,-121.45285797,0.309814460000098
-84.99815369,-121.47222137,0.310058600000048
-84.99140167,-121.45588684,0.310058600000048
-84.99880219,-121.49284363,0.310180670000136
-84.99427032,-121.45787811,0.310424810000086
-84.99590302,-121.49162292,0.310546880000174
-84.99282837,-121.47640228,0.311035160000074
-84.98164368,-121.47846985,0.311279300000024
-84.98995972,-121.48764801,0.311279300000024
-84.99949646,-121.47926331,0.311279300000024
-84.99575043,-121.49388123,0.311523440000201
-84.99611664,-121.46056366,0.312133790000189
-84.99011993,-121.45381927,0.312133790000189
-84.97812653,-121.47570038,0.312377930000139
-84.9955368,-121.46804047,0.3125
-84.98834991,-121.45417786,0.3125
-84.99019623,-121.48844147,0.312744140000177
-84.98149109,-121.47798157,0.312988280000127
-84.99217224,-121.45700073,0.313232420000077
-84.99752808,-121.49429321,0.313232420000077
-84.99456787,-121.45519257,0.313476570000148
-84.98973083,-121.45632172,0.313842780000186
-84.99861908,-121.46647644,0.314086920000136
-84.98442841,-121.48249054,0.314086920000136
-84.9932785,-121.45610046,0.314453130000174
-84.99269867,-121.46359253,0.314697270000124
-84.99124908,-121.4697113,0.315063480000163
-84.99462891,-121.45522308,0.315185550000024
-84.99552917,-121.46858978,0.315307620000112
-84.99461365,-121.48181915,0.315307620000112
-84.98490906,-121.48329926,0.315307620000112
-84.9927597,-121.49194336,0.315429690000201
-84.99581146,-121.46585083,0.315551760000062
-84.99537659,-121.46807098,0.315551760000062
-84.99514771,-121.49037933,0.315673830000151
-84.98619843,-121.45105743,0.316040040000189
-84.9934082,-121.48000336,0.31616211000005
-84.9924469,-121.45455933,0.316284180000139
-84.99784851,-121.46903992,0.316650390000177
-84.98937225,-121.45256805,0.316894530000127
-84.99108887,-121.47389984,0.317016600000215
-84.9928894,-121.45259857,0.317382820000148
-84.99282074,-121.49198151,0.317382820000148
-84.96977997,-121.46257019,0.317382820000148
-84.99337006,-121.4561615,0.317504890000009
-84.99034882,-121.49153137,0.317504890000009
-84.99858856,-121.47286987,0.317871100000048
-84.99816895,-121.48596191,0.317871100000048
-84.99452972,-121.48348236,0.318115240000225
-84.99614716,-121.46591949,0.318481450000036
-84.99858856,-121.49243927,0.318481450000036
-84.99459839,-121.49212646,0.318603520000124
-84.98873138,-121.47650909,0.319091800000024
-84.98809052,-121.45050049,0.319213870000112
-84.99436188,-121.48911285,0.319213870000112
-84.99978638,-121.47425079,0.319458010000062
-84.99256134,-121.45762634,0.319458010000062
-84.99504852,-121.48220062,0.319580080000151
-84.99337769,-121.47963715,0.319702150000012
-84.99427032,-121.46739197,0.32006836000005
-84.99729156,-121.49362183,0.32006836000005
-84.99662018,-121.46697998,0.320190430000139
-84.99154663,-121.49017334,0.320434570000089
-84.99111938,-121.49263763,0.320678710000038
-84.99685669,-121.48983765,0.320800780000127
-84.99373627,-121.45924377,0.320922850000215
-84.99759674,-121.47409821,0.321044920000077
-84.99909973,-121.48802948,0.321289070000148
-84.99452972,-121.46634674,0.321533210000098
-84.99690247,-121.49285889,0.321777350000048
-84.99160004,-121.47975922,0.321899420000136
-84.99362946,-121.49311066,0.321899420000136
-84.99346924,-121.46804047,0.322265630000174
-84.99899292,-121.47598267,0.322265630000174
-84.99072266,-121.49188232,0.322265630000174
-84.99446869,-121.46334076,0.322631840000213
-84.99810028,-121.4716568,0.323120120000112
-84.99941254,-121.4903183,0.323242190000201
-84.99108887,-121.47943878,0.323364260000062
-84.99809265,-121.4912262,0.323486330000151
-84.98918152,-121.47662354,0.323608400000012
-84.99092102,-121.4545517,0.323608400000012
-84.99993134,-121.48059082,0.323608400000012
-84.99649811,-121.46678162,0.3237304700001
-84.98951721,-121.46401978,0.323852540000189
-84.99056244,-121.49138641,0.32397461000005
-84.99360657,-121.46555328,0.324096680000139
-84.99767303,-121.49371338,0.324462890000177
-84.9954834,-121.49304962,0.324829100000215
-84.99920654,-121.49033356,0.324951170000077
-84.99712372,-121.47807312,0.325439460000098
-84.98851776,-121.45088196,0.325683600000048
-84.99359131,-121.46272278,0.325805670000136
-84.9910202,-121.48085785,0.325927740000225
-84.9997406,-121.47434235,0.326049810000086
-84.99861145,-121.4920578,0.326293950000036
-84.99595642,-121.49385834,0.326293950000036
-84.99276733,-121.45774078,0.326538090000213
-84.99816895,-121.46896362,0.326660160000074
-84.99333191,-121.49240112,0.326660160000074
-84.98985291,-121.45024872,0.326782230000163
-84.99772644,-121.46446991,0.326904300000024
-84.99997711,-121.47187042,0.327514650000012
-84.99291229,-121.48361206,0.32788086000005
-84.98992157,-121.45327759,0.328369140000177
-84.99250793,-121.48005676,0.328979500000059
-84.99900818,-121.48529053,0.329101570000148
-84.99759674,-121.49353027,0.329711920000136
-84.99517059,-121.49259186,0.329833990000225
-84.99671173,-121.46337128,0.330078130000174
-84.99019623,-121.45358276,0.330200200000036
-84.9961319,-121.49668884,0.330688480000163
-84.99920654,-121.49292755,0.331420900000012
-84.99452209,-121.45996857,0.331909180000139
-84.99323273,-121.45813751,0.334228520000124
-84.99894714,-121.46713257,0.334228520000124
-84.99994659,-121.47171783,0.334350590000213
-84.99819946,-121.4911499,0.334838870000112
-84.99401093,-121.49333191,0.334838870000112
-84.99469757,-121.47190094,0.33569336000005
-84.99671173,-121.49456024,0.336059570000089
-84.998909,-121.49223328,0.336181640000177
-84.9973526,-121.46727753,0.336425780000127
-84.99063873,-121.45371246,0.336669920000077
-84.9958725,-121.49626923,0.337524420000136
-84.98847198,-121.45031738,0.338989260000062
-84.99447632,-121.47728729,0.339111330000151
-84.99897766,-121.46994781,0.339111330000151
-84.99571228,-121.49578094,0.339233400000012
-84.99194336,-121.49298859,0.339965820000089
-84.9925766,-121.48168945,0.340332030000127
-84.99880219,-121.4697113,0.340576170000077
-84.99752045,-121.47637939,0.340576170000077
-84.99571991,-121.47702026,0.340942390000009
-84.99373627,-121.49289703,0.341186530000186
-84.99933624,-121.4760437,0.341552740000225
-84.99079132,-121.45379639,0.341674810000086
-84.99414825,-121.45908356,0.341918950000036
-84.99577332,-121.49307251,0.342285160000074
-84.99403381,-121.49620056,0.342529300000024
-84.99842072,-121.46896362,0.342651370000112
-84.99944305,-121.48184204,0.343383790000189
-84.99624634,-121.49388123,0.34375
-84.99417114,-121.48538208,0.343872070000089
-84.99124146,-121.48329163,0.343872070000089
-84.99742126,-121.47592163,0.344116210000038
-84.998909,-121.46977234,0.344360350000215
-84.99385071,-121.49595642,0.344360350000215
-84.98995972,-121.45276642,0.344482420000077
-84.99938202,-121.49263763,0.344482420000077
-84.99362946,-121.49243927,0.344604500000059
-84.9927597,-121.49713135,0.344604500000059
-84.9998703,-121.47387695,0.345336920000136
-84.99656677,-121.47136688,0.345703130000174
-84.99160004,-121.4611969,0.345947270000124
-84.99114227,-121.45439148,0.346069340000213
-84.99611664,-121.47409821,0.346191410000074
-84.99320984,-121.48892212,0.346191410000074
-84.99302673,-121.49141693,0.346679690000201
-84.99904633,-121.47234344,0.347290040000189
-84.9967804,-121.47283173,0.347534180000139
-84.99858093,-121.49137115,0.347778320000089
-84.99997711,-121.47994232,0.347900390000177
-84.99543762,-121.48986816,0.347900390000177
-84.99308014,-121.49445343,0.347900390000177
-84.99121094,-121.45744324,0.348022460000038
-84.99347687,-121.46688843,0.348144530000127
-84.99353027,-121.49198151,0.348144530000127
-84.99568176,-121.46456146,0.348266600000215
-84.99712372,-121.47756958,0.348388670000077
-84.99954224,-121.49246216,0.348999030000186
-84.99777222,-121.47026062,0.349121100000048
-84.99662018,-121.46591187,0.349731450000036
-84.99224091,-121.48989105,0.349731450000036
-84.9943924,-121.48806,0.349975590000213
