"X","Y","Z"
-85.07562256,-121.45024872,0.129394530000127
-85.05046082,-121.4519577,0.130737299999964
-85.05078125,-121.45333099,0.13305663999995
-85.07727814,-121.45101929,0.133666989999938
-85.05278778,-121.45675659,0.133911130000115
-85.07492065,-121.45200348,0.134277339999926
-85.05371857,-121.45484161,0.134643549999964
-85.05532074,-121.45723724,0.135864260000062
-85.07511902,-121.45059967,0.13647461000005
-85.05531311,-121.45449066,0.136596680000139
-85.05445099,-121.45919037,0.136840820000089
-85.05001068,-121.45507813,0.13696288999995
-85.05439758,-121.45040894,0.137207030000127
-85.05426025,-121.45542145,0.137329099999988
-85.05740356,-121.45256042,0.137329099999988
-85.05734253,-121.45791626,0.137695310000026
-85.05821228,-121.45648956,0.137939449999976
-85.05848694,-121.45326233,0.138793940000141
-85.0500412,-121.4523468,0.139038089999985
-85.05935669,-121.45835114,0.139160160000074
-85.07498932,-121.45127869,0.139404300000024
-85.05812073,-121.45236969,0.139648439999974
-85.0565033,-121.45037079,0.1401367200001
-85.05767822,-121.46099854,0.1401367200001
-85.05988312,-121.45567322,0.141235349999988
-85.05808258,-121.45628357,0.141235349999988
-85.07298279,-121.45033264,0.141601560000026
-85.05880737,-121.46311188,0.141601560000026
-85.07984161,-121.45015717,0.142211910000015
-85.07389069,-121.45469666,0.142578120000053
-85.05944061,-121.45214081,0.142578120000053
-85.05815887,-121.45906067,0.142700190000141
-85.05857086,-121.45709229,0.142944339999985
-85.05680847,-121.45095062,0.143676760000062
-85.05554199,-121.45761871,0.143798830000151
-85.06150055,-121.4553299,0.143920900000012
-85.05085754,-121.45349121,0.1440429700001
-85.08448792,-121.45909119,0.144165039999962
-85.056633,-121.45671082,0.14428711000005
-85.06250763,-121.45423889,0.144409180000139
-85.06131744,-121.45783997,0.144653320000089
-85.05708313,-121.45449829,0.145019530000127
-85.07855225,-121.45516205,0.145385739999938
-85.05583191,-121.45791626,0.145507810000026
-85.05136108,-121.45406342,0.145507810000026
-85.06268311,-121.45694733,0.145629880000115
-85.05010223,-121.45747375,0.145751949999976
-85.05956268,-121.45847321,0.145874020000065
-85.07642365,-121.45350647,0.146606440000141
-85.05917358,-121.45419312,0.146728510000003
-85.05342865,-121.45400238,0.147460939999974
-85.05300903,-121.45948029,0.147583010000062
-85.05609131,-121.45546722,0.147827150000012
-85.06163025,-121.45841217,0.147827150000012
-85.08010101,-121.45780182,0.148071289999962
-85.05412292,-121.45832062,0.148071289999962
-85.05703735,-121.45955658,0.14819336000005
-85.07263184,-121.45012665,0.14868163999995
-85.05876923,-121.45995331,0.14868163999995
-85.06034088,-121.4593277,0.148925780000127
-85.05084991,-121.45883179,0.149169920000077
-85.06008911,-121.45304108,0.149291989999938
-85.05639648,-121.46177673,0.149414060000026
-85.07089996,-121.45156097,0.149414060000026
-85.08261871,-121.45645905,0.149536130000115
-85.05352783,-121.46005249,0.149536130000115
-85.06124115,-121.45764923,0.149658199999976
