"X","Y","Z"
-85.00105286,-121.34893036,0.0509033200000886
-85.00170898,-121.33856964,0.0510253899999498
-85.00012207,-121.33583069,0.0511474600000383
-85.00257111,-121.34272003,0.0513915999999881
-85.00302887,-121.33392334,0.051879880000115
-85.00112152,-121.32785797,0.0523681600000145
-85.00308228,-121.34893799,0.0528564400001414
-85.00292206,-121.32775879,0.053222660000074
-85.00036621,-121.33467102,0.0533447299999352
-85.00140381,-121.32816315,0.0540771500000119
-85.00212097,-121.32839966,0.0541992200001005
-85.00180054,-121.34529877,0.0548095700000886
-85.00363922,-121.32884979,0.0549316399999498
-85.00385284,-121.33796692,0.0550537100000383
-85.00357056,-121.34645844,0.0550537100000383
-85.00248718,-121.32424927,0.0550537100000383
-85.00254822,-121.3354187,0.0551757800001269
-85.0058136,-121.33882141,0.0555419899999379
-85.00550842,-121.33248138,0.0559081999999762
-85.00357819,-121.33183289,0.0565185499999643
-85.0032196,-121.32533264,0.0567626900001414
-85.005867,-121.33795929,0.0576171899999736
-85.00615692,-121.32657623,0.0577392600000621
-85.00415802,-121.3296814,0.0577392600000621
-85.00195313,-121.33226776,0.0577392600000621
-85.00637054,-121.33036041,0.0578613300001507
-85.00399017,-121.33014679,0.0582275399999617
-85.01004791,-121.34828949,0.0587158200000886
-85.00662231,-121.32437897,0.0589599600000383
-85.00756073,-121.32846832,0.0590820300001269
-85.00553894,-121.33181763,0.0590820300001269
-85.00327301,-121.3230896,0.059692380000115
-85.00509644,-121.32803345,0.059692380000115
-85.00095367,-121.33622742,0.059692380000115
-85.01132202,-121.34339142,0.0598144499999762
-85.0006485,-121.33043671,0.0598144499999762
-85.00700378,-121.34351349,0.060058589999926
-85.00418854,-121.32875061,0.0601806600000145
-85.00881958,-121.34490204,0.0606689400001414
-85.00280762,-121.34179688,0.0606689400001414
-85.00689697,-121.32466888,0.0606689400001414
-85.00670624,-121.32717133,0.0606689400001414
-85.00449371,-121.32700348,0.0615234399999736
-85.00502777,-121.32544708,0.0618896500000119
-85.00421906,-121.33634186,0.0620117200001005
-85.00946045,-121.34190369,0.0620117200001005
-85.00076294,-121.31186676,0.0628662100000383
-85.00234222,-121.33261871,0.0629882800001269
-85.0029068,-121.31939697,0.0634765600000264
-85.00534058,-121.33196259,0.063598630000115
-85.00759125,-121.33174133,0.0638427700000648
-85.00724792,-121.32515717,0.0640869100000145
-85.00920868,-121.32601929,0.0644531200000529
-85.00415039,-121.32927704,0.0644531200000529
-85.00415802,-121.32276154,0.0645751900001414
-85.01473999,-121.32559967,0.064941410000074
-85.00836182,-121.32058716,0.064941410000074
-85.00550079,-121.32839203,0.0651855500000238
-85.00247192,-121.32559204,0.0653076200001124
-85.00018311,-121.33223724,0.0653076200001124
-85.00418854,-121.33229828,0.0654296899999736
-85.0092926,-121.32819366,0.0655517600000621
-85.00196075,-121.33213043,0.0656738300001507
-85.01577759,-121.33557892,0.0659179700001005
-85.00538635,-121.32367706,0.0660400399999617
-85.00032806,-121.30098724,0.0660400399999617
-85.00730896,-121.32804871,0.0661621100000502
-85.0074234,-121.34085846,0.0666503899999498
-85.00330353,-121.32498169,0.0667724600000383
-85.01029968,-121.34612274,0.0673828100000264
-85.00855255,-121.3365097,0.067504880000115
-85.00357819,-121.32827759,0.0679931600000145
-85.00190735,-121.32788849,0.0683593700000529
-85.00563812,-121.32250977,0.0684814400001414
-85.01109314,-121.32235718,0.0686035100000026
-85.00913239,-121.32496643,0.0686035100000026
-85.0011673,-121.3273468,0.0686035100000026
-85.00102997,-121.34841156,0.0687255899999855
-85.01354218,-121.3200531,0.068847660000074
-85.01197815,-121.33216858,0.0689697299999352
-85.00895691,-121.33483124,0.0692138700001124
-85.00163269,-121.33141327,0.0694580100000621
-85.01737213,-121.34584045,0.0695800800001507
-85.00348663,-121.33798981,0.0695800800001507
-85.01332092,-121.32305145,0.0695800800001507
-85.00296021,-121.32724762,0.0695800800001507
-85.00714874,-121.31755066,0.0698242200001005
-85.00511169,-121.33969116,0.0698242200001005
-85.0138092,-121.34221649,0.0700683600000502
-85.01290894,-121.32527924,0.0700683600000502
-85.01686859,-121.33979034,0.0703125
-85.00154114,-121.32865143,0.0704345700000886
-85.00791931,-121.30433655,0.0706787100000383
-85.00354004,-121.34912872,0.0706787100000383
-85.00713348,-121.34944916,0.0708007800001269
-85.00450897,-121.31761169,0.0709228499999881
-85.01098633,-121.32465363,0.0710449200000767
-85.00144958,-121.33116913,0.0710449200000767
-85.00301361,-121.32727814,0.0712890600000264
-85.00198364,-121.34375,0.0712890600000264
-85.01434326,-121.33132172,0.071411130000115
-85.00256348,-121.32348633,0.071411130000115
-85.01174927,-121.33235931,0.0716552700000648
-85.01902771,-121.34899902,0.0716552700000648
-85.00559998,-121.32980347,0.071777339999926
-85.0030365,-121.33029938,0.071777339999926
-85.00084686,-121.3326416,0.071777339999926
-85.0087738,-121.33527374,0.0720214800001031
-85.00296783,-121.33927917,0.0720214800001031
-85.00663757,-121.31884003,0.0721435499999643
-85.01402283,-121.34210205,0.0721435499999643
-85.00521851,-121.31868744,0.0723876900001414
-85.00482941,-121.3302002,0.0726318399999855
-85.00126648,-121.33093262,0.072753910000074
-85.02088165,-121.34932709,0.0729980500000238
-85.00405884,-121.3433609,0.0729980500000238
-85.00267792,-121.34182739,0.0729980500000238
-85.00509644,-121.33350372,0.0733642600000621
-85.01534271,-121.34483337,0.0737304700001005
-85.00086212,-121.33045959,0.0737304700001005
-85.00868225,-121.32627106,0.0739746100000502
-85.0136795,-121.33315277,0.0739746100000502
-85.01937103,-121.34703827,0.0740966800001388
-85.00643158,-121.33286285,0.0740966800001388
-85.00379181,-121.33466339,0.0743408200000886
-85.00965881,-121.34967804,0.0749511700000767
-85.00773621,-121.32182312,0.0750732399999379
-85.005867,-121.32144165,0.0751953100000264
-85.00964355,-121.34693146,0.0754394499999762
-85.00340271,-121.34519196,0.0755615200000648
-85.01238251,-121.34664154,0.075683589999926
-85.0033493,-121.31835175,0.0759277300001031
-85.00314331,-121.33387756,0.0759277300001031
-85.01444244,-121.34797668,0.0762939400001414
-85.00630951,-121.33538818,0.0765380899999855
-85.00765228,-121.34076691,0.076660160000074
-85.00852203,-121.34407806,0.0767822299999352
-85.0082016,-121.32778168,0.0770263700001124
-85.00119781,-121.30892181,0.0770263700001124
-85.01869965,-121.34884644,0.0771484399999736
-85.01056671,-121.34853363,0.0771484399999736
-85.00244141,-121.31025696,0.0772705100000621
-85.00505829,-121.3483429,0.0776367200001005
-85.00769806,-121.32173157,0.0777587899999617
-85.00543213,-121.32456207,0.0777587899999617
-85.00836182,-121.33857727,0.0778808600000502
-85.01255798,-121.34895325,0.0778808600000502
-85.00588226,-121.32861328,0.078125
-85.00946808,-121.32286835,0.0783691399999498
-85.00492096,-121.32433319,0.0783691399999498
-85.00292969,-121.31295013,0.0783691399999498
-85.00855255,-121.326828,0.0788574200000767
-85.00541687,-121.31880188,0.0788574200000767
-85.01127625,-121.34333801,0.0789794899999379
-85.013237,-121.34351349,0.0793456999999762
-85.00637054,-121.34365845,0.0793456999999762
-85.00849152,-121.31945038,0.0794677700000648
-85.01696777,-121.33812714,0.0794677700000648
-85.00592804,-121.32537079,0.0794677700000648
-85.01241302,-121.34845734,0.079589839999926
-85.00978088,-121.30534363,0.0799560499999643
-85.00482941,-121.32679749,0.0799560499999643
-85.01239777,-121.3421936,0.0799560499999643
-85.01596832,-121.34929657,0.0800781200000529
-85.02062225,-121.34220123,0.0802001900001414
-85.0087738,-121.30580139,0.0802001900001414
-85.01377106,-121.34732056,0.0803222600000026
-85.0036087,-121.31530762,0.080566410000074
-85.00691986,-121.34145355,0.0806884799999352
-85.00492859,-121.32447815,0.0808105500000238
-85.00750732,-121.3312912,0.0808105500000238
-85.00900269,-121.32440186,0.0809326200001124
-85.00968933,-121.33141327,0.0809326200001124
-85.00752258,-121.32476807,0.0809326200001124
-85.00640869,-121.32618713,0.0809326200001124
-85.01822662,-121.33321381,0.0810546899999736
-85.01441193,-121.33937073,0.0810546899999736
-85.00753021,-121.30497742,0.0811767600000621
-85.00747681,-121.31900024,0.0812988300001507
-85.01422882,-121.34512329,0.0814209000000119
-85.01966858,-121.3364563,0.0817871100000502
-85.02102661,-121.34793091,0.0819091800001388
-85.00817108,-121.32333374,0.0819091800001388
-85.01154327,-121.33789063,0.0819091800001388
-85.01003265,-121.32080841,0.0822753899999498
-85.00762939,-121.32157135,0.0822753899999498
-85.0116806,-121.31382751,0.0822753899999498
-85.01038361,-121.31448364,0.0822753899999498
-85.01548004,-121.33474731,0.0823974600000383
-85.02355957,-121.34661102,0.0826415999999881
-85.01878357,-121.33099365,0.0827636700000767
-85.02039337,-121.34240723,0.0827636700000767
-85.01715851,-121.3498764,0.0827636700000767
-85.00971985,-121.33898926,0.0828857399999379
-85.00067139,-121.31046295,0.0830078100000264
-85.01293945,-121.3365097,0.083129880000115
-85.0220108,-121.34410095,0.0832519499999762
-85.00287628,-121.3010025,0.083496089999926
-85.01172638,-121.31685638,0.083496089999926
-85.01316071,-121.34030151,0.083496089999926
-85.00839996,-121.33515167,0.0837402300001031
-85.01158905,-121.33164978,0.0837402300001031
-85.01014709,-121.32021332,0.0839843700000529
-85.01986694,-121.33506012,0.0839843700000529
-85.02574921,-121.34738159,0.0839843700000529
-85.02127075,-121.3393631,0.0841064400001414
-85.00775146,-121.320961,0.0842285100000026
-85.01622009,-121.33222961,0.0842285100000026
-85.00778198,-121.30388641,0.0842285100000026
-85.01454163,-121.33917236,0.084472660000074
-85.01566315,-121.34728241,0.0845947299999352
-85.01364136,-121.33457947,0.0845947299999352
-85.01719666,-121.34690094,0.0848388700001124
-85.00717163,-121.31803131,0.0848388700001124
-85.009552,-121.31493378,0.0850830100000621
-85.00541687,-121.34868622,0.0850830100000621
-85.00601196,-121.30915833,0.0852050800001507
-85.00911713,-121.31568146,0.0853271500000119
-85.01113129,-121.31638336,0.0854492200001005
-85.00141907,-121.33602142,0.0854492200001005
-85.00904846,-121.34082031,0.0854492200001005
-85.01113892,-121.3155899,0.0854492200001005
-85.01004028,-121.32002258,0.0854492200001005
-85.01589966,-121.33828735,0.0856933600000502
-85.02162933,-121.33743286,0.0858154300001388
-85.0105896,-121.34329987,0.0858154300001388
-85.01570892,-121.34078217,0.0859375
-85.01052856,-121.32357025,0.0859375
-85.01703644,-121.34941864,0.0860595700000886
-85.01387024,-121.33236694,0.0861816399999498
-85.01172638,-121.3049469,0.0863037100000383
-85.0075531,-121.33853149,0.0866699200000767
-85.01838684,-121.34853363,0.0866699200000767
-85.01026154,-121.32824707,0.0867919899999379
-85.01834869,-121.34011841,0.0867919899999379
-85.01210022,-121.32321167,0.0867919899999379
-85.0141983,-121.34770203,0.0871581999999762
-85.01434326,-121.32991028,0.0871581999999762
-85.01608276,-121.34030914,0.0872802700000648
-85.01567841,-121.33528137,0.0872802700000648
-85.00229645,-121.33294678,0.087402339999926
-85.01046753,-121.34719086,0.087402339999926
-85.01113129,-121.34107208,0.0877685499999643
-85.00845337,-121.31835938,0.0881347600000026
-85.01381683,-121.34049225,0.0882568399999855
-85.01278687,-121.32453918,0.0882568399999855
-85.01596832,-121.34484863,0.088378910000074
-85.00058746,-121.30052185,0.0885009799999352
-85.03437042,-121.34848022,0.0886230500000238
-85.01396942,-121.32280731,0.0886230500000238
-85.01468658,-121.34851837,0.0886230500000238
-85.02587128,-121.3469162,0.0887451200001124
-85.02085876,-121.34002686,0.0888671899999736
-85.00660706,-121.34558105,0.0888671899999736
-85.02768707,-121.34832001,0.0889892600000621
-85.02088165,-121.34649658,0.0889892600000621
-85.00939941,-121.32170105,0.0891113300001507
-85.01493073,-121.32745361,0.0891113300001507
-85.02072144,-121.34796906,0.0891113300001507
-85.00256348,-121.33181,0.0891113300001507
-85.02069092,-121.34899902,0.0891113300001507
-85.01573181,-121.31655121,0.0892334000000119
-85.01181793,-121.34705353,0.0894775399999617
-85.01168823,-121.34971619,0.0894775399999617
-85.01547241,-121.33499146,0.0895996100000502
-85.01318359,-121.31783295,0.0897216800001388
-85.00807953,-121.30020905,0.0900878899999498
-85.01463318,-121.32095337,0.0900878899999498
-85.01508331,-121.3110199,0.0902099600000383
-85.02287292,-121.34850311,0.0902099600000383
-85.00402069,-121.32660675,0.0902099600000383
-85.01171875,-121.31971741,0.0902099600000383
-85.02066803,-121.34323883,0.0902099600000383
-85.01657867,-121.32067108,0.0903320300001269
-85.01667023,-121.34570313,0.0903320300001269
-85.00701904,-121.3019104,0.0903320300001269
-85.00183868,-121.31285858,0.0905761700000767
-85.01104736,-121.31619263,0.0906982399999379
-85.01634979,-121.33067322,0.0906982399999379
-85.03447723,-121.34786224,0.0908203100000264
-85.01019287,-121.34436798,0.0908203100000264
-85.01956177,-121.32769775,0.090942380000115
-85.00562286,-121.34851074,0.0910644499999762
-85.00787354,-121.31938171,0.0911865200000648
-85.01873016,-121.34912109,0.0911865200000648
-85.0160675,-121.34042358,0.091308589999926
-85.01364136,-121.34960938,0.091308589999926
-85.00753021,-121.34602356,0.0914306600000145
-85.01165009,-121.34680939,0.0914306600000145
-85.00543213,-121.32115173,0.0916747999999643
-85.02351379,-121.34549713,0.0916747999999643
-85.0252533,-121.34896851,0.0917968700000529
-85.00920868,-121.34796143,0.0917968700000529
-85.01457214,-121.34805298,0.0917968700000529
-85.02297211,-121.34971619,0.0917968700000529
-85.02271271,-121.34668732,0.0919189400001414
-85.01866913,-121.33106995,0.0920410100000026
-85.01763916,-121.34185028,0.0921630899999855
-85.01376343,-121.3168869,0.0921630899999855
-85.0218277,-121.33885193,0.092285160000074
-85.00140381,-121.29715729,0.0924072299999352
-85.02121735,-121.34983826,0.0924072299999352
-85.01660919,-121.32952118,0.0926513700001124
-85.01132965,-121.306427,0.0926513700001124
-85.01068115,-121.34983063,0.0926513700001124
-85.01699829,-121.34625244,0.0927734399999736
-85.01596069,-121.32274628,0.0928955100000621
-85.01500702,-121.34609985,0.0928955100000621
-85.00379944,-121.29997253,0.0930175800001507
-85.03443909,-121.34777069,0.0933837899999617
-85.02050018,-121.33399963,0.0936279300001388
-85.01895142,-121.33717346,0.09375
-85.02213287,-121.34842682,0.0938720700000886
-85.00752258,-121.34783936,0.0938720700000886
-85.02097321,-121.33128357,0.0939941399999498
-85.0218811,-121.33888245,0.0939941399999498
-85.02458191,-121.34610748,0.0941162100000383
-85.01555634,-121.31707001,0.0941162100000383
-85.00538635,-121.32106018,0.0942382800001269
-85.0198288,-121.32668304,0.0942382800001269
-85.01693726,-121.31890869,0.0943603499999881
-85.01277161,-121.31848907,0.0944824200000767
-85.00945282,-121.32096863,0.0944824200000767
-85.00861359,-121.29782867,0.0944824200000767
-85.01763153,-121.32591248,0.0946044899999379
-85.00775146,-121.34499359,0.0946044899999379
-85.02320862,-121.33824158,0.0947265600000264
-85.01026154,-121.30487061,0.0947265600000264
-85.01727295,-121.31065369,0.094848630000115
-85.01753998,-121.33409119,0.0950927700000648
-85.01554871,-121.34967804,0.0950927700000648
-85.01804352,-121.32103729,0.095214839999926
-85.01815033,-121.34763336,0.095214839999926
-85.03450012,-121.34690857,0.0953369100000145
-85.01992798,-121.33332825,0.0953369100000145
-85.02323151,-121.33499146,0.0953369100000145
-85.00463867,-121.29641724,0.0954589800001031
-85.02217865,-121.3421936,0.0957031200000529
-85.01351929,-121.31598663,0.0959472600000026
-85.02253723,-121.33117676,0.0959472600000026
-85.02252197,-121.32843018,0.096191410000074
-85.01841736,-121.34867096,0.096191410000074
-85.01759338,-121.31716919,0.0963134799999352
-85.00727844,-121.3216095,0.0963134799999352
-85.00376129,-121.3123703,0.0963134799999352
-85.02365875,-121.32919312,0.0965576200001124
-85.00534821,-121.32096863,0.0966796899999736
-85.02197266,-121.34519196,0.0966796899999736
-85.02069092,-121.34559631,0.0966796899999736
-85.00933075,-121.32167053,0.0968017600000621
-85.02082062,-121.33027649,0.0968017600000621
-85.02529144,-121.33818817,0.0969238300001507
-85.03227234,-121.34731293,0.0970459000000119
-85.02633667,-121.33125305,0.0970459000000119
-85.02262115,-121.34879303,0.0971679700001005
-85.03518677,-121.3441391,0.0972900399999617
-85.00022125,-121.33070374,0.0972900399999617
-85.00269318,-121.3217392,0.0977783200000886
-85.01930237,-121.34512329,0.0977783200000886
-85.01850891,-121.31307983,0.0979003899999498
-85.01329041,-121.31620789,0.0979003899999498
-85.02529144,-121.34171295,0.0979003899999498
-85.00576019,-121.31929779,0.0981445300001269
-85.02336121,-121.3376236,0.0981445300001269
-85.0224762,-121.34575653,0.0981445300001269
-85.02768707,-121.34745026,0.0982665999999881
-85.02690887,-121.34686279,0.0982665999999881
-85.01576233,-121.33305359,0.0985107399999379
-85.01667786,-121.33746338,0.0985107399999379
-85.02490234,-121.33743286,0.098754880000115
-85.01985168,-121.34430695,0.098754880000115
-85.04525757,-121.34966278,0.0988769499999762
-85.00832367,-121.31095886,0.0988769499999762
-85.00737762,-121.32096863,0.0989990200000648
-85.00501251,-121.29930878,0.0989990200000648
-85.02420807,-121.33361816,0.0989990200000648
-85.01920319,-121.34626007,0.0989990200000648
-85.03208923,-121.34777069,0.0993652300001031
-85.02243805,-121.34925079,0.0994872999999643
-85.00827789,-121.29865265,0.0994872999999643
-85.00254059,-121.34303284,0.0994872999999643
-85.02419281,-121.33087158,0.0996093700000529
-85.0359726,-121.34925079,0.0997314400001414
-85.01708984,-121.3099823,0.0997314400001414
-85.0280304,-121.3427124,0.0997314400001414
-85.02661133,-121.34352112,0.0998535100000026
-85.02227783,-121.34577179,0.0998535100000026
-85.02496338,-121.33925629,0.0999755899999855
-85.00813293,-121.32588196,0.100219729999935
-85.02146149,-121.3371582,0.100341800000024
-85.02600861,-121.33026886,0.100341800000024
-85.02387238,-121.34490204,0.100341800000024
-85.03865051,-121.34866333,0.100463870000112
-85.0196228,-121.33447266,0.100463870000112
-85.0161972,-121.3303299,0.100463870000112
-85.00804901,-121.3081665,0.100463870000112
-85.01856232,-121.34223175,0.100585939999974
-85.00566864,-121.3189621,0.100708010000062
-85.01834869,-121.3449707,0.100830080000151
-85.02805328,-121.34623718,0.100952150000012
-85.02601624,-121.33379364,0.101196289999962
-85.02565765,-121.34480286,0.10131836000005
-85.03617859,-121.34786224,0.101440430000139
-85.02468872,-121.32515717,0.101440430000139
-85.02941895,-121.34484863,0.101440430000139
-85.03234863,-121.34661102,0.1015625
-85.01524353,-121.34172058,0.1015625
-85.02216339,-121.34181976,0.101684570000089
-85.02555084,-121.33728027,0.101928710000038
-85.02864075,-121.34352875,0.101928710000038
-85.00042725,-121.32945251,0.101928710000038
-85.03440094,-121.34667206,0.102050780000127
-85.01967621,-121.33363342,0.102172849999988
-85.01151276,-121.32254791,0.102172849999988
-85.00678253,-121.2975235,0.102172849999988
-85.01835632,-121.33896637,0.102172849999988
-85.02671814,-121.34288788,0.102294920000077
-85.01930237,-121.34632111,0.102294920000077
-85.00415039,-121.31189728,0.102294920000077
-85.04164124,-121.34591675,0.102416989999938
-85.01815796,-121.31400299,0.102416989999938
-85.02158356,-121.31716156,0.102416989999938
-85.01496887,-121.34575653,0.102416989999938
-85.02722931,-121.34443665,0.102539060000026
-85.00180054,-121.32376862,0.102783199999976
-85.02014923,-121.33886719,0.102783199999976
-85.03032684,-121.34343719,0.102905270000065
-85.03289795,-121.3443985,0.103027339999926
-85.00454712,-121.33085632,0.103027339999926
-85.00295258,-121.34262085,0.103027339999926
-85.00655365,-121.33068085,0.103393549999964
-85.02722168,-121.34043884,0.103515620000053
-85.00945282,-121.30758667,0.103515620000053
-85.02111053,-121.34622955,0.103637690000141
-85.02149963,-121.33798981,0.103759760000003
-85.01950073,-121.34108734,0.103759760000003
-85.01428986,-121.33722687,0.104003910000074
-85.03032684,-121.34436798,0.104248050000024
-85.0145874,-121.31902313,0.104248050000024
-85.02172089,-121.33490753,0.104248050000024
-85.01930237,-121.34721375,0.104248050000024
-85.01676941,-121.32826996,0.104370120000112
-85.01872253,-121.34626007,0.104370120000112
-85.03556061,-121.34992218,0.104492189999974
-85.02838898,-121.3433075,0.104492189999974
-85.00427246,-121.34564972,0.104492189999974
-85.02068329,-121.33918762,0.104614260000062
-85.021492,-121.34362793,0.104736330000151
-85.02351379,-121.33840942,0.104736330000151
-85.00536346,-121.31162262,0.104858400000012
-85.014328,-121.34484863,0.1049804700001
-85.02021027,-121.34217072,0.1049804700001
-85.03426361,-121.34735107,0.105102539999962
-85.01860809,-121.32121277,0.10522461000005
-85.02420807,-121.34201813,0.10522461000005
-85.00269318,-121.32936859,0.10522461000005
-85.0229187,-121.34941101,0.105346680000139
-85.01828766,-121.33071899,0.10546875
-85.01026154,-121.32650757,0.10546875
-85.01609039,-121.33859253,0.10546875
-85.03192902,-121.33683014,0.10546875
-85.03703308,-121.34471893,0.105590820000089
-85.01786804,-121.3397522,0.105590820000089
-85.00074768,-121.32745361,0.105957030000127
-85.02033234,-121.32337189,0.106323239999938
-85.03375244,-121.34275055,0.106323239999938
-85.02069092,-121.33972168,0.106323239999938
-85.04634094,-121.3453064,0.106445310000026
-85.02232361,-121.34031677,0.106445310000026
-85.02668762,-121.34171295,0.106567380000115
-85.01370239,-121.3431015,0.106567380000115
-85.03504181,-121.34381104,0.106689449999976
-85.02928162,-121.33914948,0.106811520000065
-85.02380371,-121.33544922,0.106811520000065
-85.01589203,-121.32170868,0.106933589999926
-85.0202179,-121.33316803,0.106933589999926
-85.04997253,-121.34683228,0.107055660000015
-85.00415802,-121.33895874,0.107055660000015
-85.02407074,-121.34500885,0.107177730000103
-85.02361298,-121.34120941,0.107177730000103
-85.03220367,-121.33737946,0.107299799999964
-85.01844025,-121.32167053,0.107421870000053
-85.01315308,-121.32328033,0.107421870000053
-85.00289154,-121.31481171,0.107666010000003
-85.02085876,-121.33827209,0.107788089999985
-85.00267029,-121.2989502,0.107788089999985
-85.04361725,-121.34580994,0.107910160000074
-85.01773071,-121.34043884,0.108154300000024
-85.02317047,-121.337677,0.108276370000112
-85.04688263,-121.34307098,0.108398439999974
-85.0245285,-121.34281158,0.108398439999974
-85.00997925,-121.32772827,0.108520510000062
-85.00106049,-121.33518982,0.108642580000151
-85.00006866,-121.34638214,0.108764650000012
-85.03531647,-121.33011627,0.108764650000012
-85.03666687,-121.34175873,0.108764650000012
-85.02667999,-121.33470917,0.108764650000012
-85.02496338,-121.33432007,0.108764650000012
-85.0292511,-121.34797668,0.109008789999962
-85.00389099,-121.34230804,0.109008789999962
-85.01928711,-121.33444977,0.109375
-85.01741028,-121.32521057,0.109375
-85.02674103,-121.34375,0.109375
-85.04786682,-121.3466568,0.109497070000089
-85.02745056,-121.34757233,0.109497070000089
-85.01908112,-121.32733154,0.10961913999995
-85.02871704,-121.33463287,0.10961913999995
-85.04042816,-121.34896088,0.109741210000038
-85.0269928,-121.34816742,0.109741210000038
-85.01062775,-121.32472992,0.109985349999988
-85.04161835,-121.34317017,0.110107420000077
-85.03117371,-121.33557892,0.110107420000077
-85.00319672,-121.34184265,0.110473630000115
-85.01248932,-121.32636261,0.110595699999976
-85.02236938,-121.33289337,0.110595699999976
-85.02810669,-121.346138,0.110961910000015
-85.00131226,-121.33402252,0.111083980000103
-85.00758362,-121.30049896,0.111328120000053
-85.04473114,-121.33917236,0.111328120000053
-85.02838135,-121.34290314,0.111328120000053
-85.04383087,-121.3345871,0.111450190000141
-85.01016998,-121.3405838,0.111450190000141
-85.04296875,-121.34255219,0.111572260000003
-85.0390625,-121.34609985,0.111694339999985
-85.0405426,-121.34835052,0.111694339999985
-85.04234314,-121.33773804,0.111694339999985
-85.02715302,-121.34779358,0.112060550000024
-85.01579285,-121.33123016,0.112304689999974
-85.0117569,-121.33641052,0.112426760000062
-85.0370636,-121.34393311,0.112548830000151
-85.00305939,-121.30056,0.112548830000151
-85.03198242,-121.34871674,0.112548830000151
-85.0207901,-121.33757019,0.1127929700001
-85.03083801,-121.34411621,0.112915039999962
-85.02674866,-121.3423233,0.112915039999962
-85.01817322,-121.33043671,0.11328125
-85.00351715,-121.30180359,0.113403320000089
-85.04136658,-121.34503937,0.113647460000038
-85.01741028,-121.34030151,0.113647460000038
-85.03479004,-121.34410095,0.113769530000127
-85.02960968,-121.34619141,0.113769530000127
-85.02783203,-121.34501648,0.113891599999988
-85.02905273,-121.33847809,0.113891599999988
-85.00926971,-121.30146027,0.114135739999938
-85.03289032,-121.34731293,0.114135739999938
-85.03092957,-121.3466568,0.114135739999938
-85.04611969,-121.34454346,0.114257810000026
-85.00176239,-121.34735107,0.114379880000115
-85.02658844,-121.33596039,0.114501949999976
-85.04029083,-121.34111786,0.114990230000103
-85.01820374,-121.33804321,0.114990230000103
-85.00749207,-121.33566284,0.114990230000103
-85.03227997,-121.34558105,0.115234370000053
-85.00614929,-121.30483246,0.115234370000053
-85.00911713,-121.33734894,0.115356440000141
-85.02066803,-121.32906342,0.115722660000074
-85.04666138,-121.3423233,0.115844729999935
-85.0003891,-121.34449768,0.115966800000024
-85.00112915,-121.34986115,0.115966800000024
-85.01215363,-121.30448914,0.116210939999974
-85.0375824,-121.34162903,0.116455080000151
-85.00785065,-121.3337326,0.1166992200001
-85.0147171,-121.3022995,0.1166992200001
-85.00686646,-121.30505371,0.1166992200001
-85.01087189,-121.30518341,0.116821289999962
-85.02764893,-121.33901215,0.116821289999962
-85.04727173,-121.34777069,0.117065430000139
-85.00669098,-121.34980774,0.117065430000139
-85.00151825,-121.34754944,0.1171875
-85.00016785,-121.34026337,0.1171875
-85.00016022,-121.29580688,0.117309570000089
-85.03408813,-121.34921265,0.117309570000089
-85.03211975,-121.34880066,0.117309570000089
-85.03607178,-121.349617,0.11743163999995
-85.01561737,-121.33924103,0.117553710000038
-85.04010773,-121.34156036,0.117797849999988
-85.0432663,-121.3457489,0.117919920000077
-85.00058746,-121.34310913,0.117919920000077
-85.00910187,-121.30532837,0.118041989999938
-85.00839996,-121.30380249,0.118164060000026
-85.00092316,-121.29505157,0.118408199999976
-85.00161743,-121.34793091,0.118530270000065
-85.02073669,-121.33744812,0.118530270000065
-85.02934265,-121.34631348,0.118774410000015
-85.00231171,-121.34526825,0.118774410000015
-85.01329041,-121.30693817,0.118896480000103
-85.00595856,-121.33863831,0.118896480000103
-85.01235962,-121.30490875,0.119018549999964
-85.0434494,-121.34896851,0.119018549999964
-85.03437042,-121.34951019,0.119018549999964
-85.03217316,-121.34883118,0.119018549999964
-85.0165329,-121.30728912,0.119140620000053
-85.03967285,-121.34916687,0.119140620000053
-85.03710175,-121.34313965,0.119506839999985
-85.00679779,-121.29869843,0.119506839999985
-85.0161972,-121.30976105,0.119750979999935
-85.01039124,-121.30357361,0.119750979999935
-85.00009155,-121.33905029,0.119750979999935
-85.04508209,-121.34837341,0.119873050000024
-85.04324341,-121.34568024,0.119995120000112
-85.0318222,-121.34600067,0.119995120000112
-85.01410675,-121.3044281,0.119995120000112
-85.01091766,-121.30258179,0.119995120000112
-85.00414276,-121.29559326,0.120117189999974
-85.00756836,-121.29769897,0.120239260000062
-85.0190506,-121.30632782,0.120361330000151
-85.01924896,-121.30783081,0.120727539999962
-85.01701355,-121.34111786,0.12084961000005
-85.04769135,-121.34625244,0.12109375
-85.00237274,-121.34249878,0.12109375
-85.0136795,-121.33640289,0.121215820000089
-85.03395844,-121.3465271,0.12133788999995
-85.04328918,-121.34548187,0.12133788999995
-85.0447998,-121.34835052,0.121826170000077
-85.01583862,-121.3044281,0.121826170000077
-85.04329681,-121.3374176,0.121948239999938
-85.00749969,-121.34793854,0.122070310000026
-85.00414276,-121.34680939,0.122192380000115
-85.00061798,-121.34288788,0.122314449999976
-85.00685883,-121.33534241,0.122314449999976
-85.04335022,-121.345047,0.122436520000065
-85.02249908,-121.30712128,0.122436520000065
-85.02098846,-121.30757904,0.122436520000065
-85.03125763,-121.34832001,0.122558589999926
-85.01273346,-121.34883881,0.122558589999926
-85.01706696,-121.33828735,0.122558589999926
-85.04524994,-121.33825684,0.122680660000015
-85.00730133,-121.29736328,0.122680660000015
-85.02568054,-121.33947754,0.123046870000053
-85.02931976,-121.34638977,0.123535160000074
-85.04511261,-121.34745026,0.123535160000074
-85.03391266,-121.3427887,0.123535160000074
-85.01223755,-121.29924774,0.123657229999935
-85.02922058,-121.34992218,0.123657229999935
-85.00334167,-121.34712982,0.123779300000024
-85.04306793,-121.33763885,0.123901370000112
-85.03740692,-121.34111023,0.123901370000112
-85.00115204,-121.29361725,0.124023439999974
-85.00396729,-121.34242249,0.124023439999974
-85.00434113,-121.29572296,0.124145510000062
-85.02200317,-121.30654144,0.124389650000012
-85.02081299,-121.30474854,0.124389650000012
-85.04517365,-121.3379364,0.12475586000005
-85.04009247,-121.3405304,0.12475586000005
-85.0247879,-121.34851074,0.12475586000005
-85.04843903,-121.34261322,0.125122070000089
-85.04382324,-121.33512878,0.125366210000038
-85.0462265,-121.34306335,0.125366210000038
-85.03766632,-121.33998108,0.125366210000038
-85.00402832,-121.34545898,0.125488280000127
-85.00711823,-121.34770966,0.125610349999988
-85.01265717,-121.3006897,0.125854489999938
-85.03417206,-121.34528351,0.126098630000115
-85.01661682,-121.30204773,0.126464839999926
-85.00256348,-121.34561157,0.126708980000103
-85.02150726,-121.34042358,0.126831049999964
-85.04881287,-121.34937286,0.126953120000053
-85.005867,-121.34513092,0.127197260000003
-85.00166321,-121.34129333,0.127319339999985
-85.04503632,-121.33863068,0.127441410000074
-85.00878906,-121.29601288,0.127441410000074
-85.0460968,-121.34729004,0.127441410000074
-85.00298309,-121.28980255,0.127929689999974
-85.00923157,-121.33450317,0.128540039999962
-85.01267242,-121.29959869,0.12866211000005
-85.0426178,-121.33934021,0.128784180000139
-85.04876709,-121.34929657,0.12890625
-85.01708221,-121.30223083,0.129028320000089
-85.03843689,-121.34130859,0.129028320000089
-85.0112915,-121.33055115,0.129028320000089
-85.00273132,-121.28949738,0.12915038999995
-85.04170227,-121.34655762,0.12915038999995
-85.01145172,-121.33966827,0.129272460000038
-85.04551697,-121.34902954,0.129394530000127
-85.03997803,-121.34934998,0.129394530000127
-85.00081635,-121.33999634,0.129394530000127
-85.04717255,-121.33912659,0.129516599999988
-85.01029968,-121.29524231,0.129516599999988
-85.02397919,-121.30542755,0.129638670000077
-85.03299713,-121.33390045,0.130004880000115
-85.03128815,-121.34751129,0.130126949999976
-85.02294922,-121.30589294,0.130249020000065
-85.01326752,-121.34474945,0.130249020000065
-85.01567078,-121.29888916,0.130371089999926
-85.04416656,-121.34072876,0.130493160000015
-85.04022217,-121.3498764,0.130615230000103
-85.00708008,-121.34703064,0.130615230000103
-85.00000763,-121.28784943,0.130859370000053
-85.04865265,-121.33851624,0.130981440000141
-85.04177094,-121.34951019,0.130981440000141
-85.01193237,-121.34616089,0.130981440000141
-85.01197052,-121.34892273,0.131225589999985
-85.01574707,-121.34871674,0.131347660000074
-85.04733276,-121.33876038,0.131469729999935
-85.042099,-121.34062195,0.131469729999935
-85.00556183,-121.34114838,0.131469729999935
-85.00975037,-121.33738708,0.131469729999935
-85.03827667,-121.34950256,0.131591800000024
-85.03076172,-121.34941101,0.131591800000024
-85.0146637,-121.32961273,0.132080080000151
-85.04709625,-121.33966827,0.1323242200001
-85.03588867,-121.33306122,0.1323242200001
-85.04155731,-121.33760834,0.132446289999962
-85.04669952,-121.34163666,0.13256836000005
-85.04538727,-121.34229279,0.13256836000005
-85.03211212,-121.34290314,0.132690430000139
-85.00061798,-121.33065033,0.132690430000139
-85.04316711,-121.34513092,0.1328125
-85.00776672,-121.33908844,0.132934570000089
-85.02519989,-121.33297729,0.132934570000089
-85.04055786,-121.3349762,0.132934570000089
-85.0189209,-121.29814911,0.133178710000038
-85.01960754,-121.29991913,0.133178710000038
-85.01303101,-121.29444885,0.133178710000038
-85.02902985,-121.34658051,0.133300780000127
-85.01422119,-121.34989166,0.133300780000127
-85.00984192,-121.29258728,0.133422849999988
-85.0032196,-121.28836823,0.133422849999988
-85.00428009,-121.33908081,0.133544920000077
-85.0320282,-121.31031799,0.133666989999938
-85.04753113,-121.33735657,0.133789060000026
-85.02619171,-121.34893036,0.134033199999976
-85.00884247,-121.29203796,0.134033199999976
-85.0460968,-121.34989929,0.134155270000065
-85.04563904,-121.33982849,0.134277339999926
-85.00966644,-121.33428955,0.134399410000015
-85.02572632,-121.30358124,0.134643549999964
-85.0324707,-121.33109283,0.134765620000053
-85.01103973,-121.32791901,0.134765620000053
-85.03009796,-121.30771637,0.134887690000141
-85.03128052,-121.30976105,0.134887690000141
-85.04438019,-121.34976959,0.134887690000141
-85.03791809,-121.34900665,0.134887690000141
-85.03907776,-121.34340668,0.135009760000003
-85.0100708,-121.34581757,0.135009760000003
-85.01438904,-121.32958221,0.135009760000003
-85.04429626,-121.340271,0.135253910000074
-85.02922821,-121.34519196,0.135253910000074
-85.02134705,-121.29965973,0.135253910000074
-85.0282135,-121.30387878,0.135375979999935
-85.04943848,-121.34616089,0.135375979999935
-85.01273346,-121.34729004,0.135498050000024
-85.0012207,-121.33409882,0.135498050000024
-85.03582764,-121.34519958,0.135498050000024
-85.00596619,-121.2873764,0.135864260000062
-85.04376984,-121.34848785,0.1362304700001
-85.02784729,-121.34999847,0.1362304700001
-85.01010132,-121.291008,0.136352539999962
-85.0061264,-121.3422699,0.13647461000005
-85.03446198,-121.34902191,0.13671875
-85.002388,-121.34523773,0.13671875
-85.03865051,-121.31317902,0.136840820000089
-85.00428009,-121.28504181,0.137084960000038
-85.00814056,-121.34243774,0.137207030000127
-85.00216675,-121.34197235,0.137329099999988
-85.04165649,-121.33136749,0.137329099999988
-85.04589844,-121.33643341,0.137451170000077
-85.04106903,-121.34829712,0.137817380000115
-85.03774261,-121.34734344,0.137939449999976
-85.00641632,-121.34883881,0.138061520000065
-85.00952911,-121.32811737,0.138183589999926
-85.04694366,-121.33959961,0.138305660000015
-85.00050354,-121.34043121,0.138305660000015
-85.0065918,-121.33706665,0.138305660000015
-85.02812958,-121.34860992,0.138549799999964
-85.04776764,-121.34958649,0.138549799999964
-85.04573059,-121.33499146,0.138671870000053
-85.01138306,-121.28945923,0.138793940000141
-85.00596619,-121.33878326,0.138793940000141
-85.00019073,-121.33255768,0.138793940000141
-85.00596619,-121.33251953,0.139160160000074
-85.04316711,-121.33409882,0.139160160000074
-85.04383087,-121.34577942,0.139282229999935
-85.03990173,-121.3260498,0.139404300000024
-85.04090118,-121.32865906,0.139526370000112
-85.03875732,-121.34990692,0.1401367200001
-85.04573822,-121.33390045,0.14038086000005
-85.03579712,-121.30722046,0.14038086000005
-85.00293732,-121.33656311,0.14038086000005
-85.03795624,-121.34723663,0.14038086000005
-85.04517365,-121.34515381,0.140502930000139
-85.00579071,-121.33853912,0.140502930000139
-85.04039764,-121.33152771,0.140502930000139
-85.00295258,-121.34094238,0.140625
-85.03965759,-121.34822845,0.140625
-85.00331879,-121.32530975,0.140625
-85.0480423,-121.34062195,0.140747070000089
-85.04651642,-121.3440094,0.140747070000089
-85.01341248,-121.32988739,0.140747070000089
-85.02294159,-121.3484726,0.140747070000089
-85.00089264,-121.32762909,0.14086913999995
-85.02452087,-121.30007935,0.140991210000038
-85.03138733,-121.30431366,0.140991210000038
-85.0025177,-121.28385162,0.140991210000038
-85.03433228,-121.30615234,0.141113280000127
-85.01689148,-121.34443665,0.141113280000127
-85.04917145,-121.33921051,0.141235349999988
-85.03121185,-121.34632874,0.141357420000077
-85.02136993,-121.34831238,0.141479489999938
-85.04148102,-121.33740997,0.141479489999938
-85.04846954,-121.34095001,0.141601560000026
-85.02916718,-121.30296326,0.141601560000026
-85.00894165,-121.28629303,0.141601560000026
-85.03769684,-121.34809113,0.141723630000115
-85.04290009,-121.31166077,0.141845699999976
-85.04698944,-121.34806824,0.141967770000065
-85.00357819,-121.3321228,0.141967770000065
-85.04569244,-121.32440948,0.142211910000015
-85.02429962,-121.34487152,0.142456049999964
-85.04611969,-121.34024048,0.142578120000053
-85.04988861,-121.33550262,0.142700190000141
-85.01603699,-121.29073334,0.142822260000003
-85.01670837,-121.34420013,0.142822260000003
-85.01895142,-121.32830811,0.142822260000003
-85.0282135,-121.30111694,0.143310550000024
-85.02340698,-121.34832764,0.143310550000024
-85.04660034,-121.34732056,0.143676760000062
-85.04608917,-121.34185791,0.143920900000012
-85.02799988,-121.29959106,0.1440429700001
-85.04071808,-121.33747864,0.144165039999962
-85.02216339,-121.29438782,0.14428711000005
-85.02883911,-121.32543182,0.14428711000005
-85.00193024,-121.34130859,0.144409180000139
-85.04772186,-121.33663177,0.14453125
-85.03009796,-121.3497467,0.144653320000089
-85.04747009,-121.33335114,0.144653320000089
-85.04261017,-121.33744049,0.144897460000038
-85.04942322,-121.33704376,0.145019530000127
-85.02680969,-121.29725647,0.145263670000077
-85.04849243,-121.33551025,0.145751949999976
-85.01265717,-121.34832764,0.145996089999926
-85.04447174,-121.34667969,0.145996089999926
-85.04708862,-121.33560181,0.146118160000015
-85.03736115,-121.341362,0.146118160000015
-85.04033661,-121.32581329,0.146118160000015
-85.00170898,-121.32250214,0.146240230000103
-85.01772308,-121.34651184,0.146240230000103
-85.00182343,-121.28040314,0.146362299999964
-85.04361725,-121.34812927,0.146484370000053
-85.03151703,-121.32209015,0.146484370000053
-85.0409317,-121.30892944,0.146728510000003
-85.03585815,-121.32357025,0.146850589999985
-85.04386902,-121.33989716,0.146972660000074
-85.04579926,-121.34604645,0.146972660000074
-85.03517914,-121.34396362,0.147094729999935
-85.03974152,-121.30687714,0.147216800000024
-85.04847717,-121.34400177,0.147216800000024
-85.00437927,-121.32936096,0.147216800000024
-85.03761292,-121.34516144,0.147460939999974
-85.00440979,-121.32700348,0.147583010000062
-85.01513672,-121.34835815,0.147827150000012
-85.04606628,-121.3120575,0.1479492200001
-85.04186249,-121.34549713,0.148071289999962
-85.01255035,-121.28843689,0.148315430000139
-85.04960632,-121.34285736,0.1484375
-85.03743744,-121.34767151,0.1484375
-85.04631042,-121.34062195,0.148559570000089
-85.01696014,-121.29107666,0.14868163999995
-85.04521942,-121.34777832,0.14868163999995
-85.02059937,-121.34565735,0.14868163999995
-85.04853058,-121.34403229,0.148925780000127
-85.01155853,-121.28788757,0.149047849999988
-85.01735687,-121.34484863,0.149047849999988
-85.0442276,-121.3392334,0.149291989999938
-85.01332092,-121.28742981,0.149536130000115
-85.00090027,-121.32124329,0.149536130000115
-85.02204895,-121.34924316,0.149658199999976
