"X","Y","Z"
-84.94803619,-121.33840179,0.0103759800001626
-84.94946289,-121.33294678,0.0114746100000502
-84.93991089,-121.33677673,0.0119628900001771
-84.94732666,-121.34703064,0.0122070300001269
-84.94438934,-121.34493256,0.0123291000002155
-84.94132996,-121.33905792,0.0125732500000595
-84.94268799,-121.34835815,0.0126953200001481
-84.9387207,-121.33447266,0.0126953200001481
-84.94873047,-121.34300995,0.0128173900000093
-84.9492569,-121.34928894,0.0128173900000093
-84.92938232,-121.32222748,0.0130615300001864
-84.93630219,-121.33187103,0.0133056700001362
-84.94454193,-121.34130096,0.0134277400002247
-84.94841003,-121.3316803,0.0134277400002247
-84.93579865,-121.33158112,0.0140380900002128
-84.9389801,-121.34944916,0.014160160000074
-84.94818878,-121.3291626,0.014160160000074
-84.94922638,-121.33441925,0.0142822300001626
-84.94689941,-121.34394073,0.0142822300001626
-84.94555664,-121.34689331,0.0146484400002009
-84.94171906,-121.31889343,0.0148925800001507
-84.93457031,-121.330513,0.0150146500000119
-84.94493866,-121.33960724,0.0153808600000502
-84.94599152,-121.34087372,0.0155029300001388
-84.93334198,-121.32969666,0.0155029300001388
-84.94802094,-121.34741974,0.0162353500002155
-84.94431305,-121.33827972,0.0163574200000767
-84.92495728,-121.32539368,0.0164795000000595
-84.9413681,-121.34462738,0.0169677800001864
-84.94674683,-121.34964752,0.0169677800001864
-84.92352295,-121.32331848,0.0172119200001362
-84.91915131,-121.31916809,0.0172119200001362
-84.94555664,-121.34552765,0.0178222700001243
-84.92064667,-121.3187027,0.0179443400002128
-84.94625092,-121.33953857,0.0181884800001626
-84.92665863,-121.32639313,0.0183105500000238
-84.92424011,-121.32379913,0.0184326200001124
-84.92485046,-121.31230927,0.0185546900002009
-84.94889832,-121.34262085,0.0185546900002009
-84.93327332,-121.33084869,0.0185546900002009
-84.94641876,-121.32657623,0.0187988300001507
-84.92118073,-121.31768036,0.0189209000000119
-84.9258728,-121.31156158,0.01953125
-84.94329834,-121.33738708,0.0197753900001771
-84.94962311,-121.34308624,0.0200195300001269
-84.92037201,-121.34324646,0.0201416000002155
-84.94360352,-121.33586121,0.0205078200001481
-84.94206238,-121.33682251,0.0205078200001481
-84.91963196,-121.34986115,0.0207519600000978
-84.9442215,-121.33963013,0.0208740300001864
-84.9495697,-121.34430695,0.0211181700001362
-84.93833923,-121.3356781,0.0212402400002247
-84.92910767,-121.32685852,0.0216064500000357
-84.92102051,-121.34149933,0.0220947300001626
-84.92073822,-121.34999084,0.0220947300001626
-84.93012238,-121.32637787,0.0220947300001626
-84.9383316,-121.33564758,0.0222168000000238
-84.93504333,-121.34140015,0.0223388700001124
-84.9294281,-121.32434082,0.0224609400002009
-84.92951202,-121.32183075,0.0227050800001507
-84.92701721,-121.31378937,0.0227050800001507
-84.91812897,-121.34361267,0.0228271500000119
-84.93615723,-121.33255005,0.023071290000189
-84.94747162,-121.32272339,0.0233154300001388
-84.91359711,-121.34272766,0.0235595700000886
-84.94303894,-121.34555054,0.0240478500002155
-84.93470764,-121.3227005,0.0242920000000595
-84.93775177,-121.32154083,0.0245361400000093
-84.92183685,-121.34980774,0.0245361400000093
-84.93450165,-121.32919312,0.0246582100000978
-84.91069794,-121.34481812,0.0247802800001864
-84.93711853,-121.33326721,0.0249023500000476
-84.94022369,-121.32209015,0.0252685600000859
-84.93759918,-121.325737,0.025878910000074
-84.92308044,-121.34954834,0.0260009800001626
-84.91298676,-121.34480286,0.0261230500000238
-84.93860626,-121.3330307,0.0261230500000238
-84.93752289,-121.32823181,0.0262451200001124
-84.93656921,-121.32644653,0.0263671900002009
-84.91130066,-121.3428421,0.0264892600000621
-84.93624115,-121.32893372,0.0264892600000621
-84.9167099,-121.34506989,0.0266113300001507
-84.94953156,-121.29656982,0.0267334000000119
-84.94184113,-121.32585907,0.0267334000000119
-84.91488647,-121.34539032,0.0270996100000502
-84.9381485,-121.33145905,0.0275878900001771
-84.93955231,-121.32675171,0.0277099600000383
-84.94843292,-121.34603119,0.0284423900000093
-84.93920135,-121.32209015,0.0286865300001864
-84.94274902,-121.33583069,0.0288086000000476
-84.94641876,-121.33016968,0.0294189500000357
-84.9230423,-121.34941101,0.0300293000000238
-84.93988037,-121.32447052,0.0302734400002009
-84.9436264,-121.33104706,0.0303955100000621
-84.92999268,-121.31156158,0.0313720700000886
-84.94685364,-121.33161926,0.0313720700000886
-84.93907166,-121.34274292,0.0318603500002155
-84.94876099,-121.34216309,0.0323486400000093
-84.93907928,-121.31606293,0.0325927800001864
-84.92797852,-121.31118011,0.0330810600000859
-84.92276764,-121.30922699,0.0341796900002009
-84.93408966,-121.31510162,0.0343017600000621
-84.94509888,-121.33045959,0.0346679700001005
-84.94615173,-121.33672333,0.0352783200000886
-84.94496918,-121.33442688,0.0355224600000383
-84.9249115,-121.31195831,0.0367431700001362
-84.94783783,-121.33772278,0.0371093800001745
-84.94654846,-121.32315063,0.037597660000074
-84.93126678,-121.31613159,0.0379638700001124
-84.91776276,-121.30818939,0.0380859400002009
-84.91457367,-121.30632782,0.0382080100000621
-84.94445801,-121.32581329,0.0382080100000621
-84.94571686,-121.3253479,0.0384521500000119
-84.94526672,-121.32380676,0.0391845700000886
-84.94304657,-121.32247925,0.0393066400001771
-84.94243622,-121.32595062,0.0396728500002155
-84.94158173,-121.32141876,0.0397949200000767
-84.94300079,-121.32367706,0.0408935600000859
-84.94345856,-121.32492828,0.0411377000000357
-84.94863892,-121.28806305,0.0412597700001243
-84.94412994,-121.32720947,0.0412597700001243
-84.94805908,-121.3221817,0.041503910000074
-84.93878937,-121.3219986,0.0419921900002009
-84.94412994,-121.32691956,0.0424804700001005
-84.93315125,-121.31829834,0.042602540000189
-84.92378235,-121.31371307,0.0435791000002155
-84.94438934,-121.32026672,0.0437011700000767
-84.94120789,-121.32350922,0.0443115300001864
-84.94969177,-121.33203888,0.0444336000000476
-84.91857147,-121.31175232,0.0446777400002247
-84.94777679,-121.32920837,0.0449218800001745
-84.91854095,-121.31166077,0.0474853500002155
-84.91335297,-121.30145264,0.0485839900002247
-84.91172028,-121.30564117,0.0487060600000859
-84.91285706,-121.30091095,0.049316410000074
-84.91612244,-121.30075073,0.0495605500000238
-84.91705322,-121.30277252,0.0499267600000621
