"X","Y","Z"
-84.85353088,-121.49810028,0.250366210000038
-84.9263382,-121.46569824,0.250610350000215
-84.90753174,-121.47398376,0.251342780000186
-84.91706085,-121.46230316,0.251708990000225
-84.92323303,-121.46954346,0.252075200000036
-84.85250854,-121.49931335,0.253173830000151
-84.85176086,-121.49298859,0.253540040000189
-84.92340851,-121.46642303,0.253540040000189
-84.88488007,-121.46842957,0.253784180000139
-84.92902374,-121.4679184,0.25390625
-84.85629272,-121.49963379,0.254272460000038
-84.93982697,-121.45903015,0.255493170000136
-84.85192871,-121.49830627,0.256225590000213
-84.85501099,-121.49755096,0.256347660000074
-84.94947052,-121.45619965,0.256835940000201
-84.90155029,-121.46655273,0.257080080000151
-84.8526001,-121.49662018,0.257202150000012
-84.92944336,-121.46750641,0.2573242200001
-84.91638184,-121.46839142,0.25756836000005
-84.85176849,-121.49833679,0.259277350000048
-84.93064117,-121.46721649,0.260375980000163
-84.85073853,-121.49929047,0.260742190000201
-84.85655975,-121.47628784,0.260742190000201
-84.85044861,-121.49349976,0.260864260000062
-84.85138702,-121.49758911,0.2612304700001
-84.88871002,-121.47007751,0.261840820000089
-84.94219971,-121.46376801,0.262084960000038
-84.85491943,-121.49462128,0.262207030000127
-84.85167694,-121.49788666,0.262939460000098
-84.92066193,-121.46414948,0.263671880000174
-84.89289093,-121.47486115,0.263916020000124
-84.94049835,-121.46427917,0.264892580000151
-84.88793945,-121.47013855,0.26538086000005
-84.8948288,-121.47442627,0.266967780000186
-84.94699097,-121.46225739,0.267456060000086
-84.87993622,-121.47229004,0.2690429700001
-84.94927979,-121.46510315,0.26928711000005
-84.85205078,-121.48169708,0.269775390000177
-84.85257721,-121.49906921,0.270751960000098
-84.89454651,-121.47438812,0.270751960000098
-84.86882782,-121.45378113,0.272705080000151
-84.92373657,-121.46868896,0.273315430000139
-84.93762207,-121.46813965,0.274414070000148
-84.93534851,-121.46549988,0.274658210000098
-84.8843689,-121.47718811,0.274658210000098
-84.86116791,-121.48095703,0.274902350000048
-84.85137177,-121.48020172,0.275512700000036
-84.88578033,-121.47660828,0.277465820000089
-84.93710327,-121.46816254,0.277954100000215
-84.93118286,-121.46643829,0.278320320000148
-84.89469147,-121.47392273,0.278686530000186
-84.94410706,-121.46904755,0.282226570000148
-84.9298172,-121.47016144,0.282226570000148
-84.88864136,-121.47570801,0.282470710000098
-84.8502121,-121.49555206,0.282592780000186
-84.90940857,-121.47257996,0.285034180000139
-84.85037994,-121.49565125,0.288330080000151
-84.86923981,-121.48091888,0.288696290000189
-84.89232635,-121.48071289,0.289794920000077
-84.85250854,-121.49835968,0.291015630000174
-84.86441803,-121.48523712,0.294433600000048
-84.85302734,-121.48554993,0.294677740000225
-84.93335724,-121.47173309,0.295776370000112
-84.87272644,-121.48621368,0.296020510000062
-84.87728882,-121.4848175,0.297851570000148
-84.93289185,-121.47477722,0.299560550000024
-84.88210297,-121.48336792,0.300048830000151
-84.86125946,-121.48908997,0.306518560000086
-84.87509918,-121.4883194,0.306640630000174
-84.89296722,-121.48600006,0.308471680000139
-84.94689178,-121.47376251,0.308715820000089
-84.85086823,-121.49492645,0.312866210000038
-84.86199188,-121.49459839,0.315429690000201
-84.90673065,-121.48503113,0.317626960000098
-84.85668182,-121.49624634,0.319091800000024
-84.85301208,-121.49710083,0.322875980000163
