"X","Y","Z"
-85.05085754,-121.33065796,0.150268549999964
-85.0528717,-121.33175659,0.150878910000074
-85.06623077,-121.33667755,0.151000979999935
-85.05139923,-121.33702087,0.151000979999935
-85.06102753,-121.33541107,0.151367189999974
-85.06513977,-121.33811188,0.151733400000012
-85.0506134,-121.34123993,0.152465820000089
-85.05188751,-121.33782959,0.152709960000038
-85.07546234,-121.33364105,0.152832030000127
-85.0701828,-121.33524323,0.153076170000077
-85.05725098,-121.33203125,0.153198239999938
-85.05713654,-121.31600189,0.153198239999938
-85.06384277,-121.33276367,0.153198239999938
-85.05944824,-121.33155823,0.153686520000065
-85.06207275,-121.33638763,0.153686520000065
-85.05239868,-121.33326721,0.153930660000015
-85.0636673,-121.33525848,0.153930660000015
-85.05177307,-121.33985138,0.153930660000015
-85.07187653,-121.32871246,0.154052730000103
-85.06271362,-121.32881927,0.154174799999964
-85.05503082,-121.33245087,0.154418940000141
-85.05328369,-121.33997345,0.154418940000141
-85.07331085,-121.33194733,0.155151370000112
-85.05126953,-121.32910919,0.155273439999974
-85.05903625,-121.33090973,0.155395510000062
-85.05354309,-121.33699799,0.155395510000062
-85.06604767,-121.33267212,0.155639650000012
-85.05303955,-121.33026123,0.155639650000012
-85.06188965,-121.32662201,0.155639650000012
-85.05024719,-121.33750153,0.1557617200001
-85.06478882,-121.32810974,0.15600586000005
-85.056633,-121.33409119,0.15625
-85.05045319,-121.33525848,0.15625
-85.05406952,-121.32668304,0.156738280000127
-85.05866241,-121.33943176,0.156738280000127
-85.06565857,-121.32392883,0.156982420000077
-85.06368256,-121.33361816,0.157104489999938
-85.05557251,-121.33743286,0.157104489999938
-85.07312775,-121.33242035,0.157226560000026
-85.06526947,-121.32891846,0.157226560000026
-85.06104279,-121.32533264,0.157348630000115
-85.05931091,-121.33145905,0.157348630000115
-85.07054138,-121.33345795,0.157470699999976
-85.05448151,-121.31152344,0.157470699999976
-85.06384277,-121.31606293,0.157958980000103
-85.05866241,-121.3271637,0.157958980000103
-85.0666275,-121.32804108,0.158447260000003
-85.06259918,-121.31524658,0.158691410000074
-85.07424927,-121.32803345,0.158813479999935
-85.06220245,-121.32720184,0.158813479999935
-85.06221008,-121.33020782,0.158813479999935
-85.0710907,-121.33123779,0.158935550000024
-85.05512238,-121.33040619,0.158935550000024
-85.07833862,-121.33049011,0.159179689999974
-85.05831146,-121.3354187,0.159301760000062
-85.05671692,-121.32601929,0.159545900000012
-85.06427002,-121.33901978,0.159545900000012
-85.06733704,-121.31562805,0.159545900000012
-85.05973053,-121.30444336,0.159545900000012
-85.06558228,-121.31581116,0.1596679700001
-85.05106354,-121.32949066,0.159790039999962
-85.06510925,-121.32241821,0.159790039999962
-85.05297089,-121.33010101,0.160034180000139
-85.05458069,-121.33840179,0.16015625
-85.07177734,-121.32848358,0.160522460000038
-85.06243134,-121.33757782,0.160522460000038
-85.06381226,-121.32334137,0.160644530000127
-85.0528183,-121.33876801,0.160644530000127
-85.08348846,-121.32833862,0.160766599999988
-85.06491852,-121.33602905,0.160766599999988
-85.05716705,-121.32331848,0.160888670000077
-85.05429077,-121.32544708,0.160888670000077
-85.05882263,-121.33599091,0.161010739999938
-85.07816315,-121.33096313,0.161254880000115
-85.05442047,-121.34417725,0.161254880000115
-85.07633209,-121.3295517,0.161376949999976
-85.06141663,-121.32215881,0.161376949999976
-85.06713104,-121.32611847,0.161499020000065
-85.05168915,-121.32646942,0.161621089999926
-85.05725098,-121.33714294,0.162109370000053
-85.05438995,-121.34168243,0.162109370000053
-85.05413818,-121.3183136,0.162353510000003
-85.05979919,-121.32987213,0.162475589999985
-85.06613159,-121.33609009,0.162597660000074
-85.0616684,-121.3227005,0.162963870000112
-85.06314087,-121.32633972,0.163085939999974
-85.05400848,-121.32541656,0.163208010000062
-85.05532074,-121.33674622,0.163330080000151
-85.05271912,-121.34105682,0.163330080000151
-85.06057739,-121.33365631,0.163452150000012
-85.06404877,-121.33074188,0.1635742200001
-85.05291748,-121.33376312,0.163696289999962
-85.05490112,-121.34223938,0.16381836000005
-85.05097198,-121.34117889,0.163940430000139
-85.05953979,-121.33760071,0.164184570000089
-85.0773468,-121.33331299,0.16430663999995
-85.07013702,-121.33428955,0.164428710000038
-85.05747986,-121.32958984,0.164428710000038
-85.0602417,-121.32842255,0.164672849999988
-85.06440735,-121.33322144,0.164672849999988
-85.06465149,-121.3287735,0.164916989999938
-85.05425262,-121.33493805,0.164916989999938
-85.06508636,-121.3375473,0.165039060000026
-85.06197357,-121.33580017,0.165161130000115
-85.05274963,-121.34133911,0.165161130000115
-85.05033112,-121.3404007,0.165405270000065
-85.06902313,-121.33013916,0.165527339999926
-85.05628967,-121.33283234,0.166015620000053
-85.05722809,-121.32260132,0.166137690000141
-85.0627594,-121.32707214,0.166137690000141
-85.06611633,-121.33096313,0.166503910000074
-85.06506348,-121.32707977,0.166625979999935
-85.06063843,-121.32672882,0.166625979999935
-85.05169678,-121.33953094,0.166870120000112
-85.05960083,-121.33162689,0.167114260000062
-85.05654907,-121.34493256,0.167236330000151
-85.05597687,-121.32980347,0.167358400000012
-85.06317139,-121.33416748,0.1674804700001
-85.05902863,-121.32395172,0.16772461000005
-85.06907654,-121.32926941,0.167846680000139
-85.05724335,-121.33321381,0.167846680000139
-85.06735229,-121.33551025,0.16796875
-85.06723785,-121.3265686,0.16821288999995
-85.05413055,-121.32495117,0.16821288999995
-85.05442047,-121.34378052,0.168334960000038
-85.06603241,-121.32322693,0.168579099999988
-85.05043793,-121.31629944,0.168579099999988
-85.06199646,-121.32967377,0.168945310000026
-85.07965088,-121.34210968,0.168945310000026
-85.06231689,-121.33287048,0.168945310000026
-85.06427765,-121.32701111,0.169067380000115
-85.05632782,-121.32572937,0.169189449999976
-85.05726624,-121.33348083,0.169311520000065
-85.06851959,-121.33085632,0.169555660000015
-85.05419159,-121.32702637,0.169555660000015
-85.05792999,-121.33152771,0.169677730000103
-85.05686188,-121.34197998,0.169677730000103
-85.0581665,-121.34133911,0.169921870000053
-85.06284332,-121.32639313,0.170043940000141
-85.06723022,-121.33152008,0.170043940000141
-85.05992126,-121.33194733,0.170043940000141
-85.05838776,-121.33860016,0.170043940000141
-85.06903839,-121.32917786,0.170288089999985
-85.0759964,-121.32952118,0.170410160000074
-85.06638336,-121.32129669,0.170532229999935
-85.0617218,-121.33159637,0.170776370000112
-85.0669632,-121.32779694,0.171020510000062
-85.05792999,-121.32736969,0.171020510000062
-85.07344055,-121.32951355,0.1713867200001
-85.06703186,-121.32826233,0.17163086000005
-85.05554199,-121.3276062,0.171752930000139
-85.05731201,-121.32750702,0.171997070000089
-85.0577774,-121.33757019,0.171997070000089
-85.05032349,-121.30339813,0.17211913999995
-85.06639099,-121.33023071,0.17211913999995
-85.05609131,-121.32636261,0.17211913999995
-85.07608032,-121.33735657,0.172241210000038
-85.05888367,-121.33197021,0.172485349999988
-85.06764221,-121.32502747,0.172851560000026
-85.05783081,-121.33408356,0.172851560000026
-85.06639099,-121.32144165,0.173217770000065
-85.05671692,-121.33876038,0.173339839999926
-85.06201935,-121.3289032,0.173583980000103
-85.05693054,-121.33628082,0.173583980000103
-85.05976105,-121.32891846,0.173950190000141
-85.05673981,-121.33158112,0.174194339999985
-85.06005859,-121.3350296,0.174560550000024
-85.05328369,-121.34178162,0.174804689999974
-85.05547333,-121.34269714,0.175048830000151
-85.05184174,-121.30184937,0.175170900000012
-85.05831146,-121.32588196,0.175659180000139
-85.06011963,-121.34432983,0.175659180000139
-85.05673218,-121.32675934,0.17578125
-85.07627106,-121.34456635,0.176269530000127
-85.05654144,-121.32337952,0.176513670000077
-85.06983185,-121.32655334,0.176879880000115
-85.05989838,-121.32527161,0.176879880000115
-85.06321716,-121.32476044,0.177001949999976
-85.05914307,-121.33097839,0.177001949999976
-85.06871033,-121.32170105,0.177001949999976
-85.07646942,-121.32711792,0.177124020000065
-85.05223083,-121.33087158,0.177124020000065
-85.06654358,-121.31076813,0.177124020000065
-85.07079315,-121.32189941,0.177368160000015
-85.05843353,-121.34423065,0.177368160000015
-85.05352783,-121.33957672,0.177368160000015
-85.05928802,-121.33651733,0.177490230000103
-85.05783081,-121.32714081,0.177612299999964
-85.05090332,-121.30938721,0.177612299999964
-85.0597229,-121.33429718,0.177734370000053
-85.06018066,-121.341362,0.177856440000141
-85.05619049,-121.32541656,0.177978510000003
-85.08154297,-121.32450104,0.178100589999985
-85.06056213,-121.32553101,0.178100589999985
-85.05660248,-121.32302094,0.178100589999985
-85.054039,-121.34288788,0.178100589999985
-85.05412292,-121.32684326,0.178100589999985
-85.07959747,-121.34098816,0.178344729999935
-85.0615387,-121.34021759,0.178588870000112
-85.06060028,-121.31926727,0.178710939999974
-85.079422,-121.32415009,0.178833010000062
-85.0692215,-121.32553101,0.178955080000151
-85.06699371,-121.31884003,0.179077150000012
-85.05815887,-121.32266235,0.179077150000012
-85.05947113,-121.32200623,0.1791992200001
-85.07657623,-121.32649994,0.179321289999962
-85.06040955,-121.32936096,0.179321289999962
-85.05982208,-121.3433609,0.179321289999962
-85.0565033,-121.30310822,0.17944336000005
-85.05999756,-121.34111786,0.1796875
-85.05477905,-121.3020401,0.17993163999995
-85.05764771,-121.32759094,0.180053710000038
-85.06881714,-121.31990051,0.180175780000127
-85.06165314,-121.30625916,0.180175780000127
-85.05354309,-121.30859375,0.180175780000127
-85.06523132,-121.32472992,0.180297849999988
-85.05142975,-121.32473755,0.180297849999988
-85.07369995,-121.31263733,0.180419920000077
-85.05361938,-121.33963013,0.180419920000077
-85.05843353,-121.3254776,0.180541989999938
-85.06108856,-121.32441711,0.180664060000026
-85.08062744,-121.34603882,0.180786130000115
-85.05848694,-121.33525085,0.180786130000115
-85.07080078,-121.3221817,0.180908199999976
-85.06288147,-121.32405853,0.180908199999976
-85.06044769,-121.32939148,0.180908199999976
-85.06703186,-121.31912231,0.181030270000065
-85.05866241,-121.3234787,0.181030270000065
-85.08068085,-121.32788086,0.181152339999926
-85.05764771,-121.34295654,0.181152339999926
-85.07727051,-121.32373047,0.181274410000015
-85.07495117,-121.32241821,0.181396480000103
-85.0594635,-121.32894897,0.181396480000103
-85.05983734,-121.34062958,0.181396480000103
-85.05236816,-121.3430481,0.181396480000103
-85.07842255,-121.32807159,0.181640620000053
-85.06355286,-121.3286438,0.181762690000141
-85.05654144,-121.33811951,0.181762690000141
-85.07158661,-121.32717896,0.182006839999985
-85.0697937,-121.31604767,0.182128910000074
-85.0701828,-121.32415009,0.182128910000074
-85.0625,-121.33258057,0.182250979999935
-85.08126831,-121.34304047,0.182495120000112
-85.07514954,-121.31337738,0.182495120000112
-85.0568924,-121.32279205,0.182617189999974
-85.06249237,-121.32330322,0.182617189999974
-85.06076813,-121.34523773,0.182617189999974
-85.06143188,-121.34329224,0.182861330000151
-85.05284119,-121.34085846,0.182861330000151
-85.07901001,-121.3248291,0.1831054700001
-85.06752014,-121.31623077,0.1831054700001
-85.05712128,-121.32885742,0.1831054700001
-85.06474304,-121.33326721,0.1831054700001
-85.06408691,-121.33522797,0.18334961000005
-85.0630188,-121.34242249,0.18334961000005
-85.08045197,-121.32808685,0.183471680000139
-85.07717896,-121.32341003,0.183471680000139
-85.07488251,-121.31926727,0.18359375
-85.07514191,-121.31333923,0.183715820000089
-85.0838089,-121.3245697,0.18383788999995
-85.06282043,-121.32559204,0.184326170000077
-85.05108643,-121.29853058,0.184326170000077
-85.07227325,-121.32083893,0.184448239999938
-85.06256104,-121.33586884,0.184448239999938
-85.06102753,-121.33625793,0.184448239999938
-85.06523132,-121.33708954,0.184570310000026
-85.05374908,-121.33969879,0.184936520000065
-85.06265259,-121.34140778,0.185058589999926
-85.05094147,-121.34049225,0.185180660000015
-85.05084229,-121.29824066,0.185302730000103
-85.05651093,-121.3235321,0.185424799999964
-85.06260681,-121.31519318,0.185424799999964
-85.06079102,-121.31907654,0.185424799999964
-85.0637207,-121.34075165,0.185546870000053
-85.07691193,-121.32465363,0.185791010000003
-85.05976868,-121.32692719,0.185791010000003
-85.06951141,-121.3259201,0.185913089999985
-85.07186127,-121.32492065,0.186157229999935
-85.06285095,-121.33616638,0.186157229999935
-85.05082703,-121.30919647,0.186401370000112
-85.05579376,-121.33360291,0.186523439999974
-85.06622314,-121.31993866,0.186645510000062
-85.06263733,-121.3260498,0.186645510000062
-85.05275726,-121.34340668,0.186645510000062
-85.07968903,-121.33068085,0.186767580000151
-85.06617737,-121.32917023,0.186889650000012
-85.06282806,-121.3271637,0.1870117200001
-85.05503082,-121.29956055,0.187133789999962
-85.08274841,-121.32823944,0.18725586000005
-85.05767822,-121.32678986,0.18725586000005
-85.0562973,-121.34018707,0.18725586000005
-85.06684113,-121.32021332,0.18725586000005
-85.05648041,-121.32346344,0.187377930000139
-85.0773468,-121.32192993,0.187622070000089
-85.07192993,-121.32010651,0.187622070000089
-85.06620789,-121.33545685,0.187622070000089
-85.07211304,-121.31459808,0.18774413999995
-85.05460358,-121.31178284,0.18774413999995
-85.06288147,-121.33644867,0.187866210000038
-85.07061005,-121.32752991,0.188110349999988
-85.06423187,-121.33531189,0.188110349999988
-85.05258179,-121.33991241,0.188110349999988
-85.06384277,-121.34355927,0.188232420000077
-85.06313324,-121.32357025,0.188476560000026
-85.08364105,-121.32518768,0.188598630000115
-85.05574799,-121.3000412,0.188598630000115
-85.0598526,-121.34349823,0.188842770000065
-85.08003235,-121.32874298,0.188964839999926
-85.07398224,-121.32539368,0.188964839999926
-85.06275177,-121.34499359,0.188964839999926
-85.06690216,-121.33377838,0.189331049999964
-85.05522919,-121.33863068,0.189331049999964
-85.06604004,-121.32038116,0.189453120000053
-85.06864166,-121.32765198,0.189697260000003
-85.06712341,-121.32778168,0.189697260000003
-85.07035828,-121.32279205,0.189819339999985
-85.05548859,-121.29974365,0.189819339999985
-85.07765961,-121.32102203,0.189941410000074
-85.0522995,-121.29788208,0.190063479999935
-85.06977081,-121.32624054,0.190185550000024
-85.06996155,-121.31931305,0.190307620000112
-85.05692291,-121.32939148,0.190429689999974
-85.083992,-121.32324982,0.190551760000062
-85.08524323,-121.32682037,0.190673830000151
-85.05557251,-121.32659149,0.190795900000012
-85.05155182,-121.2973175,0.191040039999962
-85.05386353,-121.32988739,0.19116211000005
-85.0707016,-121.32759094,0.191284180000139
-85.05441284,-121.33708954,0.19140625
-85.05312347,-121.34075165,0.19140625
-85.0766983,-121.32805634,0.19165038999995
-85.05046082,-121.33953857,0.191772460000038
-85.0634613,-121.32402802,0.191894530000127
-85.08550262,-121.32568359,0.192382810000026
-85.0530014,-121.32111359,0.192382810000026
-85.06700897,-121.33683777,0.192504880000115
-85.05770874,-121.29972076,0.192626949999976
-85.07115173,-121.32237244,0.192626949999976
-85.08059692,-121.32668304,0.192871089999926
-85.08531189,-121.33463287,0.193237299999964
-85.07891083,-121.32470703,0.193359370000053
-85.06736755,-121.32327271,0.193359370000053
-85.06987762,-121.3260498,0.193359370000053
-85.08999634,-121.32649231,0.193481440000141
-85.08229828,-121.32015991,0.193725589999985
-85.05451965,-121.2975769,0.193725589999985
-85.07608795,-121.32704163,0.193725589999985
-85.07010651,-121.32293701,0.193847660000074
-85.06276703,-121.32446289,0.193847660000074
-85.06083679,-121.32256317,0.193969729999935
-85.05283356,-121.31195831,0.193969729999935
-85.06723022,-121.31858063,0.194091800000024
-85.06941986,-121.3290329,0.194091800000024
-85.05917358,-121.30046844,0.194213870000112
-85.06461334,-121.31791687,0.194213870000112
-85.06661987,-121.33609009,0.194335939999974
-85.07214355,-121.32975006,0.194458010000062
-85.0556488,-121.32589722,0.194702150000012
-85.0732193,-121.32884216,0.194702150000012
-85.05011749,-121.33881378,0.194946289999962
-85.06732178,-121.3306427,0.19506836000005
-85.09092712,-121.32240295,0.195190430000139
-85.07301331,-121.32531738,0.1953125
-85.06051636,-121.32475281,0.1953125
-85.06027985,-121.33735657,0.195434570000089
-85.05001831,-121.30914307,0.195434570000089
-85.08257294,-121.32769012,0.195678710000038
-85.07041168,-121.31909943,0.195800780000127
-85.05722809,-121.29808807,0.196044920000077
-85.06932831,-121.33106232,0.196044920000077
-85.06626892,-121.33808899,0.196044920000077
-85.05503845,-121.34372711,0.196044920000077
-85.06598663,-121.33204651,0.196166989999938
-85.06916809,-121.31652069,0.196289060000026
-85.09316254,-121.32215118,0.196411130000115
-85.05358887,-121.29445648,0.196411130000115
-85.07543182,-121.31916809,0.196777339999926
-85.06774139,-121.32266998,0.196777339999926
-85.08659363,-121.32987976,0.196899410000015
-85.06944275,-121.32473755,0.197143549999964
-85.05854034,-121.33473969,0.197265620000053
-85.05638123,-121.33074951,0.197631839999985
-85.07177734,-121.32926941,0.197753910000074
-85.05964661,-121.33358002,0.197753910000074
-85.07202148,-121.3236618,0.197875979999935
-85.07198334,-121.32678223,0.197998050000024
-85.0844574,-121.32951355,0.198120120000112
-85.05455017,-121.32932281,0.198120120000112
-85.0533905,-121.30818939,0.198120120000112
-85.08107758,-121.3259964,0.198242189999974
-85.07991791,-121.31996155,0.198364260000062
-85.06044769,-121.32443237,0.198364260000062
-85.08151245,-121.32269287,0.198486330000151
-85.07823944,-121.31800079,0.198608400000012
-85.06256104,-121.33834076,0.198608400000012
-85.07202911,-121.33280945,0.1987304700001
-85.05001831,-121.33836365,0.1987304700001
-85.07328796,-121.3182373,0.198852539999962
-85.05866241,-121.3161087,0.198852539999962
-85.0562973,-121.29470825,0.19897461000005
-85.06439972,-121.31778717,0.199096680000139
-85.0669632,-121.3336792,0.199096680000139
-85.06522369,-121.33981323,0.199096680000139
-85.05193329,-121.29055786,0.19921875
-85.06987762,-121.32328033,0.199340820000089
-85.06939697,-121.33135986,0.199340820000089
-85.06501007,-121.33628845,0.199584960000038
-85.0717926,-121.32389069,0.199951170000077
-85.07713318,-121.3227005,0.199951170000077
-85.05326843,-121.31172943,0.199951170000077
-85.07480621,-121.32121277,0.200073239999938
-85.08499908,-121.32727051,0.200195310000026
-85.06726837,-121.32302094,0.200317380000115
-85.05580902,-121.33177948,0.200439449999976
-85.06291199,-121.29862976,0.200439449999976
-85.08598328,-121.31478882,0.200561520000065
-85.08017731,-121.31880188,0.200561520000065
-85.07073975,-121.33072662,0.200561520000065
-85.07652283,-121.31469727,0.200683589999926
-85.06015778,-121.30638123,0.200683589999926
-85.08670807,-121.32076263,0.200805660000015
-85.07787323,-121.31876373,0.200805660000015
-85.06965637,-121.33190918,0.200805660000015
-85.07298279,-121.33116913,0.200927730000103
-85.0652771,-121.32212067,0.201293940000141
-85.05538177,-121.29135132,0.201293940000141
-85.08921051,-121.32914734,0.201660160000074
-85.06179047,-121.33982849,0.201660160000074
-85.09568787,-121.32958984,0.201782229999935
-85.06121826,-121.29627991,0.201782229999935
-85.07608795,-121.32064056,0.201782229999935
-85.07408142,-121.32700348,0.201782229999935
-85.05306244,-121.31478119,0.201782229999935
-85.05400848,-121.3171463,0.201904300000024
-85.0686264,-121.31648254,0.202026370000112
-85.05882263,-121.31015015,0.202026370000112
-85.07254791,-121.33390808,0.202148439999974
-85.05674744,-121.3044281,0.202148439999974
-85.06928253,-121.3309021,0.202270510000062
-85.08831787,-121.32241058,0.202392580000151
-85.06582642,-121.31250763,0.202392580000151
-85.05177307,-121.28643799,0.202392580000151
-85.07348633,-121.3317337,0.202392580000151
-85.07656097,-121.32444763,0.202514650000012
-85.06773376,-121.33479309,0.202514650000012
-85.0593338,-121.32810211,0.2026367200001
-85.09014893,-121.32508087,0.202758789999962
-85.07855225,-121.31598663,0.202758789999962
-85.06891632,-121.32615662,0.202758789999962
-85.06864166,-121.33286285,0.202758789999962
-85.07634735,-121.31767273,0.20288086000005
-85.09468842,-121.3236084,0.203247070000089
-85.0799408,-121.31900024,0.20336913999995
-85.07568359,-121.32965851,0.20336913999995
-85.08914948,-121.31912231,0.203735349999988
-85.06671143,-121.32263947,0.203857420000077
-85.09252167,-121.32427979,0.203979489999938
-85.08789825,-121.31552887,0.204101560000026
-85.06095123,-121.33252716,0.204833980000103
-85.08997345,-121.32553864,0.204956049999964
-85.07286835,-121.33422852,0.204956049999964
-85.07597351,-121.32996368,0.205078120000053
-85.07299042,-121.31815338,0.205078120000053
-85.05863953,-121.30375671,0.205078120000053
-85.07879639,-121.31481934,0.205200190000141
-85.05903625,-121.31004333,0.205200190000141
-85.06610107,-121.32627869,0.205200190000141
-85.07084656,-121.32694244,0.205322260000003
-85.06893921,-121.33969116,0.205444339999985
-85.07025909,-121.33251953,0.205566410000074
-85.06955719,-121.29991913,0.205810550000024
-85.07669067,-121.33379364,0.205810550000024
-85.06886292,-121.32193756,0.205810550000024
-85.08499146,-121.31759644,0.205932620000112
-85.07138824,-121.33737946,0.205932620000112
-85.06494141,-121.29576111,0.206054689999974
-85.05815125,-121.28903198,0.206054689999974
-85.0615387,-121.30574036,0.206176760000062
-85.06228638,-121.31806183,0.206176760000062
-85.09104156,-121.32092285,0.206420900000012
-85.07946014,-121.32051086,0.206420900000012
-85.072052,-121.30023193,0.2065429700001
-85.06971741,-121.32277679,0.206665039999962
-85.09971619,-121.32216644,0.20678711000005
-85.07804871,-121.31667328,0.20678711000005
-85.07333374,-121.32415009,0.206909180000139
-85.07116699,-121.33110809,0.20703125
-85.08280945,-121.31697845,0.207153320000089
-85.05930328,-121.33544922,0.20727538999995
-85.08270264,-121.31848145,0.207397460000038
-85.07537842,-121.33194733,0.207397460000038
-85.0606308,-121.33455658,0.207519530000127
-85.05036163,-121.31539917,0.207519530000127
-85.06390381,-121.32675934,0.207641599999988
-85.05358124,-121.34127808,0.207641599999988
-85.06170654,-121.33364105,0.207763670000077
-85.07656097,-121.31411743,0.207763670000077
-85.06706238,-121.32353973,0.207885739999938
-85.07913971,-121.32572937,0.207885739999938
-85.05796051,-121.33686066,0.208007810000026
-85.07627106,-121.33052826,0.208129880000115
-85.0583725,-121.28919983,0.208740230000103
-85.07923126,-121.31330872,0.208862299999964
-85.07032013,-121.32981873,0.208862299999964
-85.07064056,-121.31239319,0.208862299999964
-85.07247162,-121.32095337,0.208862299999964
-85.08052063,-121.32785797,0.208984370000053
-85.07850647,-121.33422852,0.208984370000053
-85.06374359,-121.33708191,0.209106440000141
-85.06910706,-121.32485199,0.209228510000003
-85.09736633,-121.32202911,0.209716800000024
-85.06350708,-121.29234314,0.209716800000024
-85.07875824,-121.31646729,0.209838870000112
-85.08007813,-121.31781006,0.209960939999974
-85.07987976,-121.32029724,0.209960939999974
-85.08100128,-121.3316803,0.209960939999974
-85.09346771,-121.31925201,0.210083010000062
-85.05172729,-121.28494263,0.210083010000062
-85.0865097,-121.3201828,0.210327150000012
-85.0668335,-121.32375336,0.210327150000012
-85.07171631,-121.33496857,0.2104492200001
-85.06137085,-121.33590698,0.2104492200001
-85.05895233,-121.3347168,0.210571289999962
-85.08165741,-121.32998657,0.21069336000005
-85.0743866,-121.32991028,0.21069336000005
-85.06105042,-121.29071808,0.2109375
-85.08389282,-121.31109619,0.2109375
-85.09116364,-121.32045746,0.211059570000089
-85.09902954,-121.3239212,0.211547849999988
-85.052742,-121.28417206,0.211547849999988
-85.07988739,-121.31757355,0.211547849999988
-85.07775116,-121.32894135,0.211547849999988
-85.05387878,-121.33258057,0.211547849999988
-85.06141663,-121.33894348,0.211669920000077
-85.05387878,-121.3391037,0.211669920000077
-85.09449768,-121.31565094,0.211791989999938
-85.06855011,-121.32717133,0.211791989999938
-85.08126831,-121.32570648,0.211791989999938
-85.07714844,-121.30502319,0.211791989999938
-85.08782959,-121.32290649,0.211914060000026
-85.07457733,-121.32054901,0.211914060000026
-85.08257294,-121.33158112,0.211914060000026
-85.07131958,-121.33119965,0.212036130000115
-85.07647705,-121.31375885,0.212158199999976
-85.08148956,-121.3167038,0.212158199999976
-85.06255341,-121.33753204,0.212158199999976
-85.09657288,-121.32440186,0.212280270000065
-85.06736755,-121.33690643,0.212280270000065
-85.07948303,-121.31626892,0.212280270000065
-85.08197021,-121.30085754,0.212402339999926
-85.07382965,-121.29708862,0.212524410000015
-85.05921936,-121.33853149,0.212524410000015
-85.07112885,-121.29550171,0.212646480000103
-85.06127167,-121.29091644,0.212646480000103
-85.06867981,-121.29390717,0.212768549999964
-85.08261108,-121.32507324,0.212768549999964
-85.06185913,-121.3337326,0.212768549999964
-85.07666016,-121.33062744,0.212890620000053
-85.0647583,-121.33521271,0.212890620000053
-85.0845108,-121.31920624,0.213012690000141
-85.09127045,-121.31983948,0.213378910000074
-85.07943726,-121.31207275,0.213378910000074
-85.06947327,-121.32308197,0.213378910000074
-85.07357788,-121.33490753,0.213378910000074
-85.05106354,-121.33087921,0.213378910000074
-85.05903625,-121.3347702,0.213623050000024
-85.08022308,-121.32568359,0.214111330000151
-85.06742096,-121.3336792,0.214111330000151
-85.0809021,-121.32821655,0.214233400000012
-85.05947876,-121.33908081,0.214233400000012
-85.09375,-121.31826782,0.2143554700001
-85.05310822,-121.3340683,0.214477539999962
-85.06207275,-121.28862762,0.21459961000005
-85.06326294,-121.29042053,0.21459961000005
-85.08422089,-121.31796265,0.21459961000005
-85.08307648,-121.32288361,0.21459961000005
-85.06989288,-121.3098526,0.21459961000005
-85.08682251,-121.31815338,0.214721680000139
-85.08200836,-121.32705688,0.214721680000139
-85.07605743,-121.32608795,0.214721680000139
-85.06326294,-121.33261108,0.214721680000139
-85.08379364,-121.32042694,0.21484375
-85.09200287,-121.31604767,0.214965820000089
-85.0756073,-121.32881927,0.214965820000089
-85.07164764,-121.33453369,0.214965820000089
-85.09853363,-121.31672668,0.21508788999995
-85.09483337,-121.3136673,0.215209960000038
-85.07958221,-121.32015228,0.215209960000038
-85.08455658,-121.31833649,0.215454099999988
-85.08355713,-121.31390381,0.215454099999988
-85.06945801,-121.33712006,0.215454099999988
-85.05155182,-121.32868958,0.215454099999988
-85.08332825,-121.30735779,0.215576170000077
-85.07678986,-121.31694794,0.215576170000077
-85.06452942,-121.31387329,0.215698239999938
-85.09544373,-121.31912994,0.215820310000026
-85.07527924,-121.31794739,0.215820310000026
-85.07347107,-121.30586243,0.215820310000026
-85.05143738,-121.32975006,0.215820310000026
-85.10244751,-121.3184433,0.215942380000115
-85.08222198,-121.29949951,0.215942380000115
-85.07331085,-121.29646301,0.215942380000115
-85.08204651,-121.32382202,0.216064449999976
-85.05780792,-121.3036499,0.216064449999976
-85.06735992,-121.32161713,0.216308589999926
-85.08728027,-121.31671906,0.216430660000015
-85.08602905,-121.31813049,0.216552730000103
-85.08339691,-121.31642151,0.216674799999964
-85.07190704,-121.33506775,0.216674799999964
-85.10133362,-121.31430054,0.216796870000053
-85.08429718,-121.32099915,0.216796870000053
-85.08975983,-121.31516266,0.216918940000141
-85.07720947,-121.32521057,0.216918940000141
-85.07058716,-121.32971191,0.217041010000003
-85.07288361,-121.31508636,0.217041010000003
-85.07592773,-121.31494904,0.217163089999985
-85.08426666,-121.3119812,0.217163089999985
-85.09896851,-121.3152771,0.217285160000074
-85.08557892,-121.30806732,0.217285160000074
-85.05956268,-121.33286285,0.217285160000074
-85.09178162,-121.31752777,0.217529300000024
-85.07855225,-121.32433319,0.217651370000112
-85.07247162,-121.3192215,0.217773439999974
-85.08654022,-121.32169342,0.217773439999974
-85.06707764,-121.33321381,0.217895510000062
-85.06044006,-121.33142853,0.217895510000062
-85.08516693,-121.304039,0.218017580000151
-85.07951355,-121.30417633,0.218017580000151
-85.0802002,-121.29936218,0.218139650000012
-85.07591248,-121.32939148,0.218139650000012
-85.06790161,-121.31938934,0.2182617200001
-85.08674622,-121.31594849,0.2182617200001
-85.08133698,-121.31273651,0.2182617200001
-85.08135223,-121.31552887,0.2182617200001
-85.08763123,-121.31478119,0.218383789999962
-85.07932281,-121.31165314,0.218383789999962
-85.09549713,-121.31951904,0.218627930000139
-85.0790329,-121.3218689,0.218627930000139
-85.07859802,-121.3273468,0.218627930000139
-85.06600952,-121.30132294,0.218627930000139
-85.05919647,-121.33486176,0.21875
-85.08828735,-121.30931091,0.218872070000089
-85.0651474,-121.33257294,0.218872070000089
-85.09207916,-121.31536865,0.21899413999995
-85.08033752,-121.30045319,0.21899413999995
-85.06137848,-121.33277893,0.219238280000127
-85.05438232,-121.30166626,0.219238280000127
-85.05581665,-121.31360626,0.219360349999988
-85.08260345,-121.32466888,0.219482420000077
-85.0657196,-121.31876373,0.219604489999938
-85.0892868,-121.31668091,0.219726560000026
-85.08637238,-121.32145691,0.219726560000026
-85.07866669,-121.33013153,0.219848630000115
-85.07559967,-121.31594086,0.219970699999976
-85.08635712,-121.31845093,0.219970699999976
-85.0750885,-121.32785034,0.219970699999976
-85.10310364,-121.3155899,0.220092770000065
-85.06057739,-121.28614807,0.220214839999926
-85.07952881,-121.32243347,0.220214839999926
-85.08183289,-121.31027985,0.220336910000015
-85.0719986,-121.32076263,0.220336910000015
-85.09445953,-121.31455994,0.220458980000103
-85.08744812,-121.31523895,0.220581049999964
-85.08795166,-121.32411194,0.220947260000003
-85.08283997,-121.32219696,0.221069339999985
-85.06893921,-121.32988739,0.221069339999985
-85.07576752,-121.32917023,0.221191410000074
-85.09002686,-121.31417084,0.221313479999935
-85.07848358,-121.32988739,0.221313479999935
-85.09233093,-121.31420135,0.221435550000024
-85.09541321,-121.31918335,0.221435550000024
-85.08065796,-121.32128906,0.221435550000024
-85.06217194,-121.33963776,0.221435550000024
-85.06053162,-121.28736115,0.221557620000112
-85.08886719,-121.31918335,0.221679689999974
-85.08545685,-121.31433105,0.221801760000062
-85.07228088,-121.33242035,0.221923830000151
-85.06794739,-121.30088043,0.221923830000151
-85.07279205,-121.31848145,0.222045900000012
-85.05770874,-121.3004837,0.222045900000012
-85.06037903,-121.31218719,0.222045900000012
-85.10053253,-121.31681061,0.2221679700001
-85.07891846,-121.32141113,0.2221679700001
-85.06255341,-121.31433105,0.2221679700001
-85.07077789,-121.33255768,0.222290039999962
-85.07624054,-121.3168869,0.222290039999962
-85.0756073,-121.31609344,0.22241211000005
-85.07206726,-121.3289032,0.222534180000139
-85.06291199,-121.32315826,0.222534180000139
-85.09346008,-121.30982208,0.222778320000089
-85.08203125,-121.32366943,0.222778320000089
-85.08727264,-121.31569672,0.22290038999995
-85.1051178,-121.31684113,0.223144530000127
-85.09623718,-121.31587219,0.223266599999988
-85.06149292,-121.28807068,0.223510739999938
-85.06903076,-121.3361969,0.223510739999938
-85.06043243,-121.32749939,0.223632810000026
-85.08998871,-121.31407928,0.223876949999976
-85.10852051,-121.31967926,0.224121089999926
-85.08760834,-121.32337952,0.224121089999926
-85.05740356,-121.28266144,0.224365230000103
-85.07855225,-121.33019257,0.224365230000103
-85.07190704,-121.32540894,0.224609370000053
-85.07241058,-121.3192215,0.224731440000141
-85.08074951,-121.31832886,0.224731440000141
-85.08035278,-121.32984161,0.224731440000141
-85.09871674,-121.31555176,0.224853510000003
-85.05182648,-121.27671051,0.224853510000003
-85.0807724,-121.32134247,0.224853510000003
-85.09996796,-121.31912231,0.224975589999985
-85.07303619,-121.33352661,0.224975589999985
-85.10549164,-121.32359314,0.225219729999935
-85.07161713,-121.29135132,0.225219729999935
-85.09333801,-121.3210907,0.225219729999935
-85.07151794,-121.33390808,0.225219729999935
-85.09117126,-121.32016754,0.225585939999974
-85.06144714,-121.3236084,0.225585939999974
-85.08305359,-121.31391144,0.225708010000062
-85.09423065,-121.31490326,0.225952150000012
-85.07440186,-121.32939148,0.225952150000012
-85.06468964,-121.33162689,0.225952150000012
-85.1013031,-121.3218689,0.2260742200001
-85.08342743,-121.32308197,0.2260742200001
-85.08811188,-121.32093811,0.226196289999962
-85.0761795,-121.32601929,0.226196289999962
-85.06317139,-121.33202362,0.226196289999962
-85.10665894,-121.31945801,0.2265625
-85.08081055,-121.32463074,0.2265625
-85.07393646,-121.32585144,0.2265625
-85.07772827,-121.32565308,0.226684570000089
-85.07241821,-121.33249664,0.226684570000089
-85.08701324,-121.31609344,0.22680663999995
-85.07231903,-121.32055664,0.22680663999995
-85.06230927,-121.28447723,0.226928710000038
-85.06812286,-121.2906723,0.227172849999988
-85.08415222,-121.3271637,0.227172849999988
-85.08657837,-121.31105042,0.227294920000077
-85.08175659,-121.31524658,0.227294920000077
-85.09055328,-121.31913757,0.227416989999938
-85.08548737,-121.31974792,0.227539060000026
-85.08580017,-121.3125,0.227783199999976
-85.08763123,-121.31390381,0.227783199999976
-85.08281708,-121.31414032,0.227783199999976
-85.09738159,-121.3203125,0.227905270000065
-85.06912994,-121.28993225,0.227905270000065
-85.06185913,-121.28269196,0.227905270000065
-85.10198212,-121.3190918,0.228027339999926
-85.08660126,-121.31858826,0.228027339999926
-85.08728027,-121.31639099,0.228271480000103
-85.09842682,-121.32415771,0.228393549999964
-85.07633209,-121.30783081,0.228393549999964
-85.08992004,-121.31391144,0.228637690000141
-85.07398987,-121.29431915,0.228637690000141
-85.07312012,-121.3243103,0.228637690000141
-85.07382965,-121.33139038,0.228637690000141
-85.05697632,-121.27848053,0.229248050000024
-85.08907318,-121.31629181,0.229248050000024
-85.08312225,-121.32510376,0.229248050000024
-85.08831787,-121.31114197,0.229492189999974
-85.08154297,-121.3105011,0.229614260000062
-85.08821106,-121.31799316,0.229736330000151
-85.08688354,-121.31889343,0.229736330000151
-85.06140137,-121.2808609,0.229858400000012
-85.09931946,-121.32109833,0.2299804700001
-85.09729767,-121.31999207,0.2299804700001
-85.0789566,-121.32022095,0.2299804700001
-85.07675171,-121.32662201,0.2299804700001
-85.07472229,-121.3269577,0.2299804700001
-85.07898712,-121.31176758,0.230102539999962
-85.08447266,-121.320961,0.230102539999962
-85.08435059,-121.31139374,0.23022461000005
-85.08136749,-121.32875061,0.23046875
-85.07940674,-121.29592133,0.23071288999995
-85.08138275,-121.30632782,0.230834960000038
-85.08415985,-121.31726074,0.230834960000038
-85.08490753,-121.32527161,0.230957030000127
-85.07082367,-121.33544922,0.230957030000127
-85.0849762,-121.31484222,0.231079099999988
-85.08560181,-121.31980896,0.231323239999938
-85.08957672,-121.32038116,0.231445310000026
-85.07611084,-121.32584381,0.231689449999976
-85.08818817,-121.3118515,0.231811520000065
-85.10214996,-121.31761932,0.232177730000103
-85.07212067,-121.32253265,0.232177730000103
-85.07389832,-121.32868958,0.232177730000103
-85.07415771,-121.33171844,0.232177730000103
-85.06099701,-121.32684326,0.232177730000103
-85.08074951,-121.32772064,0.232299799999964
-85.08630371,-121.31017303,0.232421870000053
-85.07814026,-121.31390381,0.232421870000053
-85.09072113,-121.31897736,0.232421870000053
-85.07791138,-121.30413818,0.232543940000141
-85.10848999,-121.31987,0.232666010000003
-85.09889221,-121.32160187,0.232788089999985
-85.08850861,-121.32182312,0.232910160000074
-85.10455322,-121.3181076,0.233032229999935
-85.08171844,-121.31511688,0.233032229999935
-85.09055328,-121.3214798,0.233154300000024
-85.10574341,-121.32141876,0.233642580000151
-85.07795715,-121.30571747,0.233642580000151
-85.07022095,-121.33142853,0.233764650000012
-85.08505249,-121.31118011,0.233764650000012
-85.08080292,-121.32775116,0.234008789999962
-85.07221222,-121.32858276,0.234252930000139
-85.10552979,-121.31427765,0.234375
-85.09780121,-121.31767273,0.234375
-85.07936096,-121.30999756,0.234375
-85.07904816,-121.3186264,0.234375
-85.08833313,-121.31506348,0.234497070000089
-85.08792114,-121.32028961,0.234497070000089
-85.07132721,-121.32401276,0.23461913999995
-85.07724762,-121.2950592,0.23461913999995
-85.07843781,-121.30703735,0.23461913999995
-85.10173035,-121.31939697,0.234741210000038
-85.07328796,-121.32466125,0.234863280000127
-85.08248138,-121.31520081,0.235107420000077
-85.06654358,-121.32524109,0.235107420000077
-85.0870285,-121.31597137,0.235351560000026
-85.07888794,-121.32711792,0.235351560000026
-85.10619354,-121.31996918,0.235595699999976
-85.08531952,-121.32837677,0.235717770000065
-85.08490753,-121.31466675,0.235839839999926
-85.07910919,-121.30384064,0.235839839999926
-85.10733032,-121.32303619,0.235961910000015
-85.09657288,-121.31301117,0.235961910000015
-85.08885193,-121.32189178,0.235961910000015
-85.08666229,-121.32422638,0.235961910000015
-85.0846405,-121.33084106,0.236083980000103
-85.08621216,-121.32042694,0.236206049999964
-85.08731842,-121.31600952,0.236572260000003
-85.0820694,-121.30606842,0.236572260000003
-85.09931183,-121.32008362,0.236694339999985
-85.09449005,-121.3128891,0.236938479999935
-85.07971191,-121.31259918,0.236938479999935
-85.08799744,-121.32360077,0.237182620000112
-85.08267975,-121.313797,0.237304689999974
-85.08690643,-121.32476807,0.237426760000062
-85.09223175,-121.31307983,0.237670900000012
-85.09726715,-121.31893158,0.237670900000012
-85.08911133,-121.3224411,0.237670900000012
-85.08338928,-121.32826233,0.237670900000012
-85.0825119,-121.30850983,0.237670900000012
-85.10433197,-121.31848145,0.2377929700001
-85.10971069,-121.32348633,0.23803711000005
-85.10092163,-121.3217392,0.23803711000005
-85.09166718,-121.30551147,0.238159180000139
-85.08712006,-121.3127594,0.238159180000139
-85.07705688,-121.31890869,0.238159180000139
-85.06893158,-121.32447815,0.238159180000139
-85.08812714,-121.31057739,0.23828125
-85.07852173,-121.32662964,0.238403320000089
-85.06134033,-121.32053375,0.23852538999995
-85.09378815,-121.30709076,0.238647460000038
-85.10014343,-121.31677246,0.238647460000038
-85.08850098,-121.32415771,0.238647460000038
-85.09113312,-121.3258667,0.238769530000127
-85.08162689,-121.3286438,0.238769530000127
-85.07115936,-121.29937744,0.238891599999988
-85.08415222,-121.31725311,0.239135739999938
-85.08982849,-121.32025909,0.239135739999938
-85.10691071,-121.32479095,0.239257810000026
-85.08631134,-121.32348633,0.239257810000026
-85.07884216,-121.30381012,0.239257810000026
-85.09584808,-121.31582642,0.239501949999976
-85.07993317,-121.3125,0.239501949999976
-85.08576202,-121.31153107,0.239746089999926
-85.07549286,-121.32415771,0.239746089999926
-85.08322144,-121.30552673,0.239868160000015
-85.1098175,-121.32288361,0.239990230000103
-85.0876236,-121.32962799,0.240112299999964
-85.09339142,-121.31630707,0.240234370000053
-85.09317017,-121.3260498,0.240234370000053
-85.08921814,-121.32524109,0.240356440000141
-85.09899902,-121.31259155,0.240478510000003
-85.07578278,-121.30104065,0.240478510000003
-85.07546234,-121.32270813,0.240478510000003
-85.0766983,-121.29501343,0.240600589999985
-85.07787323,-121.31414795,0.240722660000074
-85.08104706,-121.3196106,0.240966800000024
-85.09471893,-121.31166077,0.241088870000112
-85.07702637,-121.32103729,0.241088870000112
-85.08743286,-121.31960297,0.241210939999974
-85.06565094,-121.31916046,0.241210939999974
-85.08191681,-121.32594299,0.241333010000062
-85.10201263,-121.31729126,0.241455080000151
-85.09340668,-121.30783081,0.241455080000151
-85.07266998,-121.33524323,0.241455080000151
-85.1054306,-121.3227005,0.2416992200001
-85.09075928,-121.3086319,0.2416992200001
-85.09963226,-121.32672119,0.2416992200001
-85.08746338,-121.32913971,0.241821289999962
-85.07794952,-121.32563782,0.24194336000005
-85.06201935,-121.29540253,0.24194336000005
-85.05433655,-121.27796936,0.2421875
-85.09835815,-121.32312012,0.242309570000089
-85.08226013,-121.31446075,0.242309570000089
-85.08328247,-121.32505798,0.242309570000089
-85.08522797,-121.31095123,0.242309570000089
-85.07566071,-121.30457306,0.242309570000089
-85.10215759,-121.32666779,0.242553710000038
-85.0821991,-121.32623291,0.242797849999988
-85.10002136,-121.3163681,0.242919920000077
-85.08950043,-121.31954193,0.242919920000077
-85.08128357,-121.30606842,0.242919920000077
-85.10962677,-121.32331085,0.243041989999938
-85.06588745,-121.3218689,0.243041989999938
-85.09326172,-121.32285309,0.243286130000115
-85.07833099,-121.30938721,0.243652339999926
-85.0717926,-121.32356262,0.243652339999926
-85.08789825,-121.31092834,0.243774410000015
-85.07266998,-121.31729889,0.243774410000015
-85.08778381,-121.32267761,0.243896480000103
-85.10688019,-121.32486725,0.244018549999964
-85.09279633,-121.30989838,0.244018549999964
-85.08486176,-121.3246994,0.244018549999964
-85.09087372,-121.32492828,0.244018549999964
-85.10202026,-121.31743622,0.244140620000053
-85.10275269,-121.32341766,0.244140620000053
-85.0875473,-121.32566833,0.244140620000053
-85.09361267,-121.31507111,0.244750979999935
-85.0792923,-121.30358887,0.244750979999935
-85.06417084,-121.28244781,0.245117189999974
-85.09657288,-121.31213379,0.245361330000151
-85.10012817,-121.31574249,0.245361330000151
-85.09131622,-121.30657196,0.2456054700001
-85.08106995,-121.31865692,0.2456054700001
-85.09021759,-121.32415009,0.2456054700001
-85.08827209,-121.32348633,0.2456054700001
-85.08403778,-121.31700897,0.24584961000005
-85.07923889,-121.31725311,0.24584961000005
-85.06044006,-121.28154755,0.24584961000005
-85.08804321,-121.32649231,0.24584961000005
-85.1031723,-121.33042145,0.245971680000139
-85.07659912,-121.32212067,0.245971680000139
-85.08786774,-121.31083679,0.246215820000089
-85.08139038,-121.31868744,0.246215820000089
-85.10540009,-121.32151031,0.24633788999995
-85.10320282,-121.32196045,0.24633788999995
-85.09439087,-121.31153107,0.24633788999995
-85.09005737,-121.32012939,0.246459960000038
-85.09403992,-121.32395935,0.246704099999988
-85.09884644,-121.3121109,0.246948239999938
-85.09094238,-121.32523346,0.247070310000026
-85.08004761,-121.29679108,0.247192380000115
-85.08361816,-121.32264709,0.247314449999976
-85.10389709,-121.3192215,0.247558589999926
-85.07964325,-121.31555939,0.247558589999926
-85.06771851,-121.32391357,0.247558589999926
-85.08094788,-121.31936646,0.247680660000015
-85.09316254,-121.30812836,0.248168940000141
-85.09559631,-121.32385254,0.248168940000141
-85.06855774,-121.2849884,0.248291010000003
-85.08966827,-121.32589722,0.248291010000003
-85.0942688,-121.3122406,0.248413089999985
-85.08371735,-121.31800079,0.248413089999985
-85.06884766,-121.32704163,0.248413089999985
-85.09229279,-121.32134247,0.248535160000074
-85.10527039,-121.32221222,0.248657229999935
-85.08389282,-121.30519867,0.248657229999935
-85.09918976,-121.31017303,0.249145510000062
-85.07927704,-121.32434082,0.249145510000062
-85.07731628,-121.32695007,0.249145510000062
-85.05999756,-121.27842712,0.249267580000151
-85.09102631,-121.32176208,0.249389650000012
-85.10125732,-121.31150818,0.2495117200001
-85.05322266,-121.32227325,0.2495117200001
-85.08152008,-121.32151031,0.249633789999962
-85.06559753,-121.28309631,0.24975586000005
-85.0949707,-121.32282257,0.24975586000005
-85.09155273,-121.30534363,0.249877930000139
-85.07843781,-121.32579041,0.249877930000139
