"X","Y","Z"
-85.00874329,-121.4770813,0.25024413999995
-85.01039124,-121.46292114,0.250732420000077
-85.00119781,-121.46172333,0.251831049999964
-85.00670624,-121.45877075,0.252563479999935
-85.0072403,-121.46502686,0.252685550000024
-85.01036072,-121.46283722,0.252929689999974
-85.0033493,-121.46353149,0.253173830000151
-85.00164795,-121.46027374,0.254028320000089
-85.01320648,-121.46063995,0.254882810000026
-85.00418091,-121.46021271,0.255249020000065
-85.00643158,-121.46739197,0.255615230000103
-85.01036835,-121.46298981,0.255737299999964
-85.00189972,-121.4591217,0.255981440000141
-85.01335907,-121.45899963,0.257080080000151
-85.00302887,-121.46338654,0.258422849999988
-85.00161743,-121.4590683,0.258666989999938
-85.00390625,-121.46034241,0.259765620000053
-85.01825714,-121.45812988,0.259887690000141
-85.00679016,-121.46560669,0.260009760000003
-85.01503754,-121.4610672,0.260498050000024
-85.0103302,-121.46177673,0.260986330000151
-85.01583099,-121.45754242,0.261596680000139
-85.00431061,-121.45864105,0.26196288999995
-85.00041962,-121.46327972,0.262084960000038
-85.00579071,-121.46086884,0.262573239999938
-85.01721191,-121.46179962,0.263061520000065
-85.00753784,-121.46321869,0.264892580000151
-85.00282288,-121.46391296,0.26586913999995
-85.00457001,-121.4576416,0.266723630000115
-85.00476837,-121.4647522,0.266723630000115
-85.01732635,-121.4613266,0.268066410000074
-85.00624084,-121.46694946,0.268066410000074
-85.01117706,-121.46616364,0.268554689999974
-85.00405884,-121.45892334,0.26928711000005
-85.01177216,-121.46417236,0.270507810000026
-85.01335144,-121.46562958,0.270629880000115
-85.01641846,-121.46444702,0.271362299999964
-85.00550079,-121.46105957,0.272338870000112
-85.00328827,-121.4615097,0.272583010000062
-85.01197815,-121.46276855,0.272705080000151
-85.01811981,-121.46531677,0.2729492200001
-85.01605225,-121.46520996,0.27368163999995
-85.0058136,-121.4601593,0.274047849999988
-85.00340271,-121.46089935,0.274536130000115
-85.00769806,-121.46073151,0.275634760000003
-85.01687622,-121.46189117,0.275756839999985
-85.01698303,-121.46977234,0.276367189999974
-85.00427246,-121.46518707,0.277954099999988
-85.01342773,-121.46507263,0.278076170000077
-85.00737,-121.46170807,0.278686520000065
-85.0195694,-121.46759796,0.278808589999926
-85.01592255,-121.46478271,0.278930660000015
-85.01010895,-121.46878815,0.278930660000015
-85.00538635,-121.46080017,0.279541010000003
-85.01734161,-121.46800232,0.280517580000151
-85.02059174,-121.46398926,0.280639650000012
-85.00002289,-121.47145081,0.280883789999962
-85.0127182,-121.46791077,0.28125
-85.00733185,-121.46160889,0.281372070000089
-85.00884247,-121.46530151,0.283569339999985
-85.01661682,-121.46955109,0.283813479999935
-85.01483154,-121.4683609,0.284545900000012
-85.00930786,-121.47129059,0.284790039999962
-85.01303101,-121.46588135,0.285644530000127
-85.01062775,-121.46662903,0.285888670000077
-85.0202713,-121.47377014,0.287231440000141
-85.00305939,-121.45752716,0.287353510000003
-85.01373291,-121.47177887,0.287841800000024
-85.00521851,-121.46893311,0.288330080000151
-85.01193237,-121.46929932,0.288940430000139
-85.0098114,-121.46897125,0.289184570000089
-85.00003815,-121.46488953,0.289672849999988
-85.00499725,-121.46700287,0.290527339999926
-85.02217865,-121.47450256,0.291137690000141
-85.01850128,-121.4801178,0.291259760000003
-85.01463318,-121.46888733,0.291748050000024
-85.01596832,-121.47167206,0.291870120000112
-85.00666046,-121.47232056,0.291992189999974
-85.00515747,-121.46880341,0.292114260000062
-85.01171112,-121.46967316,0.293701170000077
-85.00031281,-121.47928619,0.293701170000077
-85.02011871,-121.47328186,0.294067380000115
-85.00965118,-121.46956635,0.294189449999976
-85.00015259,-121.48480988,0.294311520000065
-85.00205994,-121.4704895,0.295043940000141
-85.01721954,-121.47537231,0.295288089999985
-85.0001297,-121.48230743,0.295410160000074
-85.00145721,-121.4644928,0.295410160000074
-85.00115204,-121.48867035,0.295776370000112
-85.00569153,-121.47518158,0.295898439999974
-85.00169373,-121.48223877,0.295898439999974
-85.00337982,-121.47512817,0.296508789999962
-85.00041199,-121.47934723,0.296875
-85.00884247,-121.47193146,0.296997070000089
-85.00045776,-121.48512268,0.29711913999995
-85.010849,-121.47303009,0.297363280000127
-85.01940155,-121.47609711,0.297607420000077
-85.0007019,-121.46456146,0.298217770000065
-85.01024628,-121.46647644,0.298339839999926
-85.0013504,-121.48069763,0.298339839999926
-85.02198029,-121.47502136,0.298583980000103
-85.01168823,-121.46974182,0.298706049999964
-85.0197525,-121.47415924,0.299804689999974
-85.0016098,-121.48123932,0.299804689999974
-85.01345062,-121.47213745,0.299926760000062
-85.01766968,-121.47279358,0.300170900000012
-85.0014801,-121.48625183,0.3002929700001
-85.00610352,-121.46630859,0.3002929700001
-85.00299835,-121.47296906,0.301147460000038
-85.00344086,-121.46983337,0.301269530000127
-85.00514221,-121.47763824,0.301391599999988
-85.0111084,-121.47077179,0.301513670000077
-85.00920105,-121.47015381,0.301513670000077
-85.01515198,-121.47299194,0.301879880000115
-85.0139389,-121.4696579,0.302001949999976
-85.02101135,-121.47789001,0.302246089999926
-85.0191803,-121.47647095,0.302612299999964
-85.0008316,-121.4797287,0.303344729999935
-85.00193024,-121.4785614,0.303588870000112
-85.01136017,-121.46959686,0.303955080000151
-85.01802826,-121.4710083,0.3046875
-85.00287628,-121.48291779,0.304809570000089
-85.00348663,-121.47844696,0.305053710000038
-85.00251007,-121.48790741,0.305175780000127
-85.00031281,-121.47361755,0.305175780000127
-85.01461792,-121.47551727,0.305297849999988
-85.00084686,-121.47657013,0.305419920000077
-85.00099182,-121.48829651,0.305786130000115
-85.0223465,-121.48078918,0.306030270000065
-85.00270844,-121.48567963,0.306274410000015
-85.00556183,-121.46627045,0.306274410000015
-85.02095032,-121.47773743,0.306396480000103
-85.00203705,-121.48162079,0.306518549999964
-85.01074982,-121.47167206,0.306762690000141
-85.00170898,-121.48912048,0.306762690000141
-85.01143646,-121.47868347,0.306884760000003
-85.00354767,-121.47522736,0.306884760000003
-85.0007782,-121.48503876,0.307006839999985
-85.00824738,-121.47319031,0.307373050000024
-85.00463104,-121.47226715,0.307373050000024
-85.00208282,-121.48490906,0.307983400000012
-85.00318909,-121.46159363,0.308959960000038
-85.00160217,-121.47209167,0.308959960000038
-85.00160217,-121.47534943,0.308959960000038
-85.00370789,-121.48706055,0.309448239999938
-85.00435638,-121.48210144,0.309814449999976
-85.01464081,-121.47457123,0.309936520000065
-85.00343323,-121.47801971,0.310058589999926
-85.0010376,-121.46116638,0.310058589999926
-85.00997925,-121.47425079,0.310180660000015
-85.01689148,-121.47434998,0.310302730000103
-85.01219177,-121.47505951,0.310424799999964
-85.00714111,-121.46266174,0.310791010000003
-85.00373077,-121.48107147,0.311279300000024
-85.00247955,-121.48750305,0.311523439999974
-85.00489044,-121.48567963,0.311645510000062
-85.00636292,-121.47161865,0.311767580000151
-85.00984955,-121.47496033,0.312377930000139
-85.00144958,-121.49169922,0.312988280000127
-85.01239014,-121.47489929,0.313476560000026
-85.00022125,-121.47556305,0.313476560000026
-85.00415802,-121.46070862,0.313720699999976
-85.00212097,-121.48976135,0.313720699999976
-85.00325012,-121.46568298,0.314086910000015
-85.02326965,-121.47693634,0.314697260000003
-85.00003815,-121.47831726,0.314697260000003
-85.00296783,-121.48583221,0.314697260000003
-85.0186615,-121.47686768,0.314819339999985
-85.00227356,-121.46486664,0.314819339999985
-85.00203705,-121.47847748,0.314941410000074
-85.00538635,-121.4744873,0.315307620000112
-85.00115204,-121.46737671,0.315307620000112
-85.00789642,-121.46817017,0.315551760000062
-85.00376129,-121.46463013,0.316040039999962
-85.0032196,-121.48310852,0.316040039999962
-85.02108765,-121.47631836,0.31616211000005
-85.01143646,-121.47779846,0.316284180000139
-85.01756287,-121.4716568,0.31665038999995
-85.0141983,-121.47515869,0.316772460000038
-85.01914978,-121.47438049,0.317016599999988
-85.02259827,-121.47873688,0.317993160000015
-85.00704193,-121.47634888,0.317993160000015
-85.00170898,-121.48075867,0.318115230000103
-85.00341034,-121.46704102,0.318359370000053
-85.00238037,-121.46775818,0.318359370000053
-85.01460266,-121.47345734,0.318969729999935
-85.01931,-121.47402191,0.319091800000024
-85.00052643,-121.46408844,0.319458010000062
-85.02426147,-121.48191071,0.319702150000012
-85.0171814,-121.47238922,0.319702150000012
-85.00041962,-121.47868347,0.319702150000012
-85.00138092,-121.48529053,0.319946289999962
-85.00517273,-121.47485352,0.32055663999995
-85.00650787,-121.47763062,0.320678710000038
-85.00379181,-121.48722839,0.320678710000038
-85.00595856,-121.46453857,0.320800780000127
-85.00286865,-121.46031952,0.320922849999988
-85.02072144,-121.47721863,0.321166989999938
-85.00045776,-121.47869873,0.321166989999938
-85.0256424,-121.48487854,0.321289060000026
-85.01985168,-121.47177124,0.321411130000115
-85.00058746,-121.46784973,0.321655270000065
-85.00734711,-121.47434235,0.321899410000015
-85.02066803,-121.48561859,0.322265620000053
-85.00340271,-121.48647308,0.322265620000053
-85.00128174,-121.49107361,0.322265620000053
-85.0224762,-121.47834015,0.322509760000003
-85.00158691,-121.4699173,0.322875979999935
-85.02378845,-121.4834137,0.322998050000024
-85.00882721,-121.47782135,0.322998050000024
-85.0038681,-121.48401642,0.323242189999974
-85.01281738,-121.47978973,0.323364260000062
-85.00479889,-121.48835754,0.323608400000012
-85.02014923,-121.47825623,0.3237304700001
-85.01145935,-121.47698975,0.3237304700001
-85.02574158,-121.48423767,0.32397461000005
-85.00023651,-121.49227142,0.32397461000005
-85.02519226,-121.47795868,0.32421875
-85.01860046,-121.47573853,0.324584960000038
-85.00424957,-121.49259186,0.324584960000038
-85.02316284,-121.47556305,0.324707030000127
-85.00144958,-121.4770813,0.324707030000127
-85.00505066,-121.48564148,0.324951170000077
-85.02671814,-121.48042297,0.325195310000026
-85.00398254,-121.46916962,0.325317380000115
-85.00649261,-121.47769928,0.325439449999976
-85.00621033,-121.47714233,0.325561520000065
-85.00402069,-121.48957825,0.325683589999926
-85.00408936,-121.47843933,0.325927730000103
-85.01171875,-121.47583008,0.326049799999964
-85.00845337,-121.47855377,0.326049799999964
-85.00552368,-121.48030853,0.326049799999964
-85.020401,-121.47708893,0.326171870000053
-85.00164032,-121.4916687,0.326904300000024
-85.00095367,-121.48760223,0.327026370000112
-85.0005722,-121.49259186,0.327148439999974
-85.02780151,-121.48445892,0.327270510000062
-85.02438354,-121.48030853,0.327392580000151
-85.00200653,-121.48066711,0.327392580000151
-85.00914001,-121.47579193,0.327758789999962
-85.01351166,-121.47718048,0.327758789999962
-85.00256348,-121.48999786,0.328247070000089
-85.02098846,-121.47509766,0.32836913999995
-85.01091003,-121.47818756,0.328857420000077
-85.0058136,-121.47949982,0.328979489999938
-85.00366974,-121.48413086,0.329345699999976
-85.0067215,-121.48000336,0.329589839999926
-85.02298737,-121.47615814,0.329711910000015
-85.02416229,-121.48178864,0.329956049999964
-85.00006866,-121.48081207,0.329956049999964
-85.00047302,-121.49514008,0.330444339999985
-85.00006104,-121.47479248,0.330566410000074
-85.01164246,-121.47566986,0.330688479999935
-85.00045776,-121.49212646,0.330688479999935
-85.00167084,-121.4832077,0.331054689999974
-85.00150299,-121.48545074,0.331054689999974
-85.0250473,-121.48612976,0.33178711000005
-85.01994324,-121.47875214,0.33203125
-85.02661133,-121.4801712,0.332153320000089
-85.00376892,-121.48889923,0.332153320000089
-85.00901794,-121.47537994,0.332397460000038
-85.00511932,-121.48378754,0.332397460000038
-85.00205231,-121.48877716,0.333007810000026
-85.01521301,-121.47815704,0.333129880000115
-85.0030365,-121.47933197,0.333129880000115
-85.00248718,-121.49282837,0.333129880000115
-85.00079346,-121.49546051,0.333374020000065
-85.00602722,-121.47825623,0.333496089999926
-85.00847626,-121.46746826,0.333496089999926
-85.0005722,-121.4726181,0.333496089999926
-85.0030899,-121.48210144,0.333618160000015
-85.02475739,-121.47869873,0.333740230000103
-85.00131989,-121.48246765,0.334106440000141
-85.00559998,-121.48908997,0.334838870000112
-85.00213623,-121.49482727,0.334838870000112
-85.02200317,-121.47897339,0.334960939999974
-85.00540924,-121.49157715,0.335083010000062
-85.00222015,-121.48104858,0.335083010000062
-85.00141907,-121.49127197,0.335205080000151
-85.0039978,-121.4809494,0.335571289999962
-85.01686096,-121.48129272,0.335815430000139
-85.01032257,-121.47931671,0.335815430000139
-85.02472687,-121.47862244,0.336059570000089
-85.00385284,-121.4832077,0.336547849999988
-85.00238037,-121.49237061,0.336669920000077
-85.01818085,-121.47663116,0.336914060000026
-85.00492859,-121.48168182,0.336914060000026
-85.00408936,-121.48674011,0.336914060000026
-85.00434875,-121.48976898,0.336914060000026
-85.00000763,-121.49394226,0.336914060000026
-85.00655365,-121.47595978,0.337158199999976
-85.01609039,-121.47398376,0.337280270000065
-85.0186615,-121.48262787,0.337646480000103
-85.01274109,-121.47875214,0.337646480000103
-85.00183868,-121.47730255,0.337646480000103
-85.00376129,-121.49449921,0.337768549999964
-85.02567291,-121.4832077,0.338012690000141
-85.00068665,-121.4729538,0.338256839999985
-85.00502014,-121.48834229,0.338623050000024
-85.00483704,-121.49059296,0.338623050000024
-85.00234222,-121.48085785,0.338623050000024
-85.00454712,-121.48153687,0.338745120000112
-85.00068665,-121.46627808,0.339111330000151
-85.00424194,-121.49205017,0.339111330000151
-85.02377319,-121.48149872,0.3393554700001
-85.01885986,-121.48123932,0.33959961000005
-85.00549316,-121.48589325,0.339721680000139
-85.00592804,-121.47801971,0.339965820000089
-85.00202179,-121.49188995,0.339965820000089
-85.00031281,-121.47219086,0.34008788999995
-85.0173111,-121.47872162,0.340209960000038
-85.00440216,-121.48731232,0.340209960000038
-85.0009613,-121.49281311,0.340209960000038
-85.02120209,-121.48149109,0.340332030000127
-85.01553345,-121.47628021,0.340332030000127
-85.00480652,-121.48209381,0.340454099999988
-85.00765991,-121.48020172,0.340576170000077
-85.00523376,-121.4801178,0.340820310000026
-85.0031662,-121.46629333,0.341186520000065
-85.00995636,-121.47303009,0.341186520000065
-85.00335693,-121.47171021,0.341186520000065
-85.02416229,-121.47978973,0.341796870000053
-85.02178955,-121.47947693,0.342773439999974
-85.00669861,-121.48779297,0.342895510000062
-85.00525665,-121.47982788,0.3432617200001
-85.00499725,-121.49041748,0.343383789999962
-85.0058136,-121.48345947,0.34375
-85.00736237,-121.48013306,0.343872070000089
-85.00460815,-121.49240112,0.343872070000089
-85.00631714,-121.48677063,0.344116210000038
-85.00675201,-121.49082184,0.344116210000038
-85.00562286,-121.47987366,0.344116210000038
-85.00482941,-121.49018097,0.345092770000065
-85.02165222,-121.47889709,0.345214839999926
-85.00086975,-121.49263,0.345214839999926
-85.01261902,-121.47846985,0.345336910000015
-85.01496887,-121.4774704,0.345581049999964
-85.00251007,-121.46987915,0.345703120000053
-85.00354004,-121.4908371,0.345703120000053
-85.00878906,-121.48461914,0.345825190000141
-85.00364685,-121.47981262,0.345825190000141
-85.0011673,-121.48750305,0.346191410000074
-85.00588989,-121.48351288,0.346435550000024
-85.00527191,-121.48822784,0.346435550000024
-85.00050354,-121.49787903,0.346435550000024
-85.00140381,-121.47363281,0.346557620000112
-85.00434875,-121.48294067,0.346923830000151
-85.00498962,-121.47102356,0.346923830000151
-85.0269165,-121.48592377,0.347045900000012
-85.00582123,-121.47415924,0.3471679700001
-85.02321625,-121.48284149,0.34741211000005
-85.00315094,-121.49008179,0.34741211000005
-85.01676941,-121.48008728,0.347534180000139
-85.01239777,-121.4786911,0.34765625
-85.00009918,-121.49411774,0.348144530000127
-85.02136993,-121.4801178,0.348266599999988
-85.02507782,-121.48445129,0.348510739999938
-85.00063324,-121.4778595,0.348754880000115
-85.00292206,-121.48706818,0.348754880000115
-85.00408936,-121.49143219,0.348876949999976
-85.02689362,-121.48583984,0.349121089999926
-85.0008316,-121.47563171,0.349487299999964
-85.01717377,-121.47839355,0.349731440000141
-85.00102997,-121.49246216,0.349731440000141
