"X","Y","Z"
-84.94805145,-121.2441864,0.150390630000174
-84.93800354,-121.2456131,0.150512700000036
-84.94338226,-121.24127197,0.151000980000163
-84.94706726,-121.24339294,0.151123050000024
-84.94924927,-121.24028778,0.151489260000062
-84.94734192,-121.24369812,0.151611330000151
-84.94483948,-121.24201965,0.152465820000089
-84.94978333,-121.24391174,0.152832030000127
-84.94332123,-121.2427063,0.152832030000127
-84.93955994,-121.24256897,0.153198250000059
-84.93831635,-121.24201965,0.153686530000186
-84.94657135,-121.24201202,0.154296880000174
-84.94506073,-121.2421875,0.155029300000024
-84.94824982,-121.24404144,0.155151370000112
-84.94210815,-121.23338318,0.155273440000201
-84.93981934,-121.24150085,0.1557617200001
-84.94303894,-121.24234009,0.15600586000005
-84.94172668,-121.24404144,0.156372070000089
-84.94924927,-121.24353027,0.156616210000038
-84.94412994,-121.24710083,0.157226570000148
-84.94146729,-121.24398804,0.157592780000186
-84.94451141,-121.23262787,0.157836920000136
-84.94075775,-121.2274704,0.157958990000225
-84.94883728,-121.23410034,0.158325200000036
-84.94346619,-121.24378204,0.158569340000213
-84.94145966,-121.24369812,0.158813480000163
-84.93978119,-121.24137878,0.159423830000151
-84.94296265,-121.24347687,0.159545900000012
-84.94521332,-121.2435379,0.159790040000189
-84.94914246,-121.24591827,0.15991211000005
-84.94029999,-121.24062347,0.16015625
-84.9365921,-121.22561646,0.160888670000077
-84.9454422,-121.24375916,0.161132820000148
-84.94204712,-121.24014282,0.161132820000148
-84.93885803,-121.23828125,0.161376960000098
-84.93874359,-121.24555206,0.161499030000186
-84.9380722,-121.23925018,0.161621100000048
-84.93766785,-121.23622894,0.161743170000136
-84.94621277,-121.2427597,0.161865240000225
-84.94502258,-121.24069977,0.162231450000036
-84.94023895,-121.24154663,0.162231450000036
-84.9436264,-121.24516296,0.162353520000124
-84.94232178,-121.23911285,0.162353520000124
-84.94273376,-121.24186707,0.162475590000213
-84.94985199,-121.24474335,0.162719730000163
-84.9473114,-121.24726868,0.162719730000163
-84.94326782,-121.22052765,0.162841800000024
-84.94898224,-121.22532654,0.162963870000112
-84.94313049,-121.24461365,0.163330080000151
-84.93952942,-121.23999023,0.163452150000012
-84.94309998,-121.24445343,0.1635742200001
-84.94194031,-121.24255371,0.1640625
-84.94969177,-121.24253845,0.164306640000177
-84.94748688,-121.24095154,0.164794920000077
-84.9416275,-121.23625946,0.164794920000077
-84.94555664,-121.23861694,0.165161140000009
-84.94509888,-121.23709106,0.165649420000136
-84.94090271,-121.24320221,0.166015630000174
-84.94309998,-121.22657776,0.166381840000213
-84.938797,-121.2381134,0.166625980000163
-84.93699646,-121.2395401,0.166870120000112
-84.94921875,-121.2484436,0.166992190000201
-84.93945313,-121.24111938,0.166992190000201
-84.94535828,-121.231987,0.167358400000012
-84.94573975,-121.24781036,0.1674804700001
-84.9484787,-121.24788666,0.16772461000005
-84.94400024,-121.24112701,0.16772461000005
-84.94058228,-121.24462128,0.168090820000089
-84.93669891,-121.24073792,0.168212890000177
-84.94307709,-121.24469757,0.168334960000038
-84.94645691,-121.24803925,0.168945320000148
-84.93727112,-121.23090363,0.168945320000148
-84.94207764,-121.23638153,0.169067390000009
-84.94711304,-121.23552704,0.169311530000186
-84.94338989,-121.23465729,0.169311530000186
-84.94199371,-121.2206192,0.169311530000186
-84.94931793,-121.23684692,0.169433600000048
-84.93917847,-121.23326874,0.169433600000048
-84.94061279,-121.23532104,0.169555670000136
-84.94165802,-121.23358917,0.169677740000225
-84.94708252,-121.23721313,0.169677740000225
-84.93624115,-121.23890686,0.170043950000036
-84.94667816,-121.24059296,0.170043950000036
-84.94419861,-121.24791718,0.170166020000124
-84.9416275,-121.24233246,0.170288090000213
-84.93895721,-121.24749756,0.170410160000074
-84.94606781,-121.23178101,0.170532230000163
-84.93894958,-121.23197174,0.170898440000201
-84.94513702,-121.24967957,0.171020510000062
-84.93956757,-121.24372864,0.171508790000189
-84.94419098,-121.2478714,0.171752930000139
-84.93718719,-121.24762726,0.172119140000177
-84.93702698,-121.24461365,0.172485350000215
-84.93782043,-121.22155762,0.172485350000215
-84.94603729,-121.23638916,0.172607420000077
-84.94519043,-121.24736786,0.172729500000059
-84.93890381,-121.24066925,0.172729500000059
-84.94632721,-121.23513794,0.172851570000148
-84.94020844,-121.24671173,0.172851570000148
-84.93843079,-121.23162079,0.173339850000048
-84.93746185,-121.24633789,0.173583990000225
-84.94587708,-121.24886322,0.173828130000174
-84.93675995,-121.24456024,0.173828130000174
-84.94423676,-121.24530029,0.173950200000036
-84.93802643,-121.24410248,0.174072270000124
-84.94957733,-121.24384308,0.174194340000213
-84.94361877,-121.23351288,0.174194340000213
-84.94464874,-121.24804688,0.174438480000163
-84.93987274,-121.24114227,0.174438480000163
-84.94394684,-121.246521,0.174682620000112
-84.94165039,-121.23217773,0.174682620000112
-84.9379425,-121.24656677,0.174804690000201
-84.93466949,-121.23921204,0.174804690000201
-84.93789673,-121.2400589,0.174926760000062
-84.93977356,-121.2438736,0.175048830000151
-84.93450165,-121.23668671,0.175048830000151
-84.94876099,-121.23664093,0.175415040000189
-84.94667816,-121.24656677,0.175659180000139
-84.93669891,-121.2460022,0.17578125
-84.94078827,-121.24311829,0.176025390000177
-84.93673706,-121.24449158,0.176025390000177
-84.93035889,-121.24053192,0.176147460000038
-84.93408203,-121.24165344,0.176147460000038
-84.93856812,-121.23403168,0.176269530000127
-84.94959259,-121.24401093,0.176391600000215
-84.94470978,-121.24549103,0.176391600000215
-84.94119263,-121.24611664,0.176391600000215
-84.94335175,-121.21714783,0.176513670000077
-84.94290161,-121.23165131,0.176635750000059
-84.94074249,-121.24433899,0.176879890000009
-84.94035339,-121.22709656,0.176879890000009
-84.94174957,-121.24157715,0.177001960000098
-84.94212341,-121.24787903,0.177246100000048
-84.94058228,-121.24932861,0.177246100000048
-84.94045258,-121.24532318,0.177368170000136
-84.94779205,-121.23478699,0.177612310000086
-84.94035339,-121.23278046,0.177978520000124
-84.93704224,-121.23442841,0.177978520000124
-84.94242859,-121.23008728,0.178100590000213
-84.93795013,-121.24520874,0.178100590000213
-84.94051361,-121.2352829,0.178222660000074
-84.94930267,-121.23430634,0.178344730000163
-84.94200897,-121.22370911,0.178344730000163
-84.94210815,-121.23232269,0.178466800000024
-84.93576813,-121.23487091,0.178466800000024
-84.94355774,-121.23766327,0.178466800000024
-84.9422226,-121.22856903,0.178588870000112
-84.94033813,-121.23274994,0.178955080000151
-84.94062042,-121.23149872,0.1791992200001
-84.93968201,-121.22971344,0.179321290000189
-84.93463135,-121.23905945,0.179321290000189
-84.94049072,-121.2274704,0.179809570000089
-84.94045258,-121.22897339,0.179809570000089
-84.94754791,-121.24552917,0.179931640000177
-84.94416809,-121.22982788,0.180175780000127
-84.94641876,-121.23766327,0.180175780000127
-84.94542694,-121.22936249,0.180419920000077
-84.93816376,-121.23735809,0.181030280000186
-84.93534088,-121.23951721,0.181152350000048
-84.94444275,-121.22319031,0.181152350000048
-84.94145966,-121.22795105,0.181518560000086
-84.9473877,-121.23813629,0.181640630000174
-84.94538879,-121.23808289,0.181640630000174
-84.94264221,-121.23023224,0.181640630000174
-84.93321228,-121.23567963,0.181762700000036
-84.94361877,-121.23851013,0.181884770000124
-84.94320679,-121.22618866,0.182128910000074
-84.93974304,-121.22686768,0.182250980000163
-84.93863678,-121.23758698,0.182373050000024
-84.94380951,-121.2322464,0.182495120000112
-84.94500732,-121.23403168,0.182495120000112
-84.93292236,-121.23664856,0.182495120000112
-84.94711304,-121.22801208,0.182495120000112
-84.94486237,-121.24342346,0.182495120000112
-84.94490814,-121.22901917,0.182861330000151
-84.94287109,-121.23045349,0.182861330000151
-84.94332886,-121.23947144,0.182983400000012
-84.93952179,-121.22557831,0.182983400000012
-84.94715881,-121.23683929,0.1831054700001
-84.94740295,-121.23377991,0.18334961000005
-84.94207764,-121.23114777,0.18359375
-84.93995667,-121.22707367,0.183715820000089
-84.93502045,-121.21901703,0.183715820000089
-84.93876648,-121.22502899,0.183959960000038
-84.94258118,-121.23892212,0.183959960000038
-84.93292999,-121.24355316,0.183959960000038
-84.94911957,-121.23589325,0.184082030000127
-84.94782257,-121.22503662,0.184204100000215
-84.93672943,-121.21588898,0.184326170000077
-84.93611908,-121.23744202,0.184570320000148
-84.94587708,-121.22949219,0.184692390000009
-84.94406891,-121.23117828,0.184692390000009
-84.94155121,-121.23960114,0.184936530000186
-84.94426727,-121.24452209,0.185180670000136
-84.94815826,-121.228302,0.185180670000136
-84.94869232,-121.23504639,0.185546880000174
-84.94165802,-121.22807312,0.185546880000174
-84.94007111,-121.23853302,0.185668950000036
-84.94422913,-121.22589874,0.185791020000124
-84.94419098,-121.22714233,0.185791020000124
-84.94172668,-121.22580719,0.186035160000074
-84.94860077,-121.2297821,0.186157230000163
-84.9400177,-121.2244873,0.186157230000163
-84.93589783,-121.23587036,0.186279300000024
-84.9370575,-121.21221924,0.186279300000024
-84.94274902,-121.224823,0.186645510000062
-84.9462204,-121.23368073,0.186767580000151
-84.9491272,-121.2287674,0.186889650000012
-84.94055176,-121.23874664,0.186889650000012
-84.93518829,-121.23432159,0.186889650000012
-84.94602203,-121.2321701,0.1870117200001
-84.93723297,-121.22537231,0.187133790000189
-84.94405365,-121.23084259,0.187377930000139
-84.94940948,-121.2430191,0.187622070000089
-84.94000244,-121.22444916,0.187622070000089
-84.94008636,-121.23721313,0.187622070000089
-84.93781281,-121.23838806,0.187622070000089
-84.93813324,-121.21530151,0.187622070000089
-84.93612671,-121.23607635,0.187744140000177
-84.94228363,-121.23126984,0.187866210000038
-84.94402313,-121.23957825,0.187988280000127
-84.93910217,-121.2385025,0.188354500000059
-84.9434967,-121.24710846,0.188476570000148
-84.94454193,-121.23883057,0.188476570000148
-84.93721008,-121.22532654,0.188476570000148
-84.9396286,-121.23565674,0.188720710000098
-84.94963837,-121.24324036,0.188842780000186
-84.94837952,-121.23866272,0.189208990000225
-84.93985748,-121.22839355,0.189331060000086
-84.94042969,-121.21128082,0.189331060000086
-84.94573975,-121.23207855,0.189453130000174
-84.93968964,-121.22563171,0.189453130000174
-84.93766022,-121.23457336,0.189453130000174
-84.94700623,-121.23912048,0.189697270000124
-84.94217682,-121.22593689,0.189941410000074
-84.93197632,-121.23986816,0.190063480000163
-84.94426727,-121.23101044,0.190185550000024
-84.94438171,-121.24404144,0.190429690000201
-84.93869781,-121.22505951,0.190429690000201
-84.94702911,-121.22503662,0.190429690000201
-84.93760681,-121.2355423,0.190551760000062
-84.94143677,-121.22538757,0.190673830000151
-84.93538666,-121.23445892,0.190673830000151
-84.9329071,-121.24163818,0.190673830000151
-84.9389801,-121.22380829,0.1909179700001
-84.93963623,-121.22682953,0.191040040000189
-84.94737244,-121.22757721,0.19116211000005
-84.94793701,-121.24085236,0.191284180000139
-84.93934631,-121.23557281,0.191284180000139
-84.94814301,-121.23458862,0.191528320000089
-84.93556213,-121.23693848,0.191528320000089
-84.93412781,-121.23464203,0.191650390000177
-84.94515991,-121.23145294,0.191772460000038
-84.93987274,-121.22704315,0.192260750000059
-84.9478302,-121.2280426,0.192626960000098
-84.94551849,-121.23796844,0.192626960000098
-84.94275665,-121.2301178,0.192871100000048
-84.94281006,-121.23638153,0.192871100000048
-84.94586945,-121.22670746,0.192993170000136
-84.94007111,-121.22827911,0.192993170000136
-84.93856049,-121.23623657,0.192993170000136
-84.94618988,-121.23222351,0.193237310000086
-84.94992828,-121.24060059,0.193359380000174
-84.93557739,-121.23536682,0.193481450000036
-84.93891144,-121.20865631,0.193481450000036
-84.94194031,-121.22431183,0.193725590000213
-84.94033813,-121.22725677,0.193725590000213
-84.94373322,-121.2383728,0.194213870000112
-84.93934631,-121.22669983,0.194702150000012
-84.94909668,-121.23496246,0.19506836000005
-84.93781281,-121.23564148,0.1953125
-84.94464874,-121.22483063,0.195678710000038
-84.94122314,-121.22247314,0.195678710000038
-84.94248962,-121.22976685,0.195678710000038
-84.94172668,-121.23800659,0.195678710000038
-84.94126129,-121.22122192,0.195800780000127
-84.94226074,-121.21994019,0.195800780000127
-84.94641113,-121.23988342,0.196533210000098
-84.93995667,-121.23816681,0.196655280000186
-84.94026184,-121.22090149,0.196777350000048
-84.94635773,-121.23336029,0.197021490000225
-84.93978119,-121.22814178,0.197021490000225
-84.93805695,-121.22707367,0.197265630000174
-84.93491364,-121.22370911,0.197631840000213
-84.93721008,-121.2378006,0.197631840000213
-84.94828033,-121.2299118,0.197875980000163
-84.94815063,-121.23963928,0.197998050000024
-84.9417572,-121.22041321,0.198120120000112
-84.94696808,-121.22766113,0.198242190000201
-84.94145203,-121.23790741,0.198364260000062
-84.94091797,-121.2388916,0.198364260000062
-84.9378891,-121.2395401,0.198608400000012
-84.93901825,-121.22781372,0.1987304700001
-84.9362793,-121.227211,0.19897461000005
-84.94613647,-121.23953247,0.19921875
-84.93495941,-121.2213974,0.19921875
-84.94351196,-121.22016907,0.199340820000089
-84.9495697,-121.24188995,0.199340820000089
-84.93913269,-121.21627045,0.199584960000038
-84.93213654,-121.21579742,0.199584960000038
-84.94284821,-121.24807739,0.199707030000127
-84.94387817,-121.23709869,0.199707030000127
-84.93644714,-121.23744965,0.199829100000215
-84.93924713,-121.22776794,0.200073250000059
-84.94167328,-121.23034668,0.200073250000059
-84.94914246,-121.22357178,0.200439460000098
-84.94959259,-121.22509003,0.200561530000186
-84.9386673,-121.21446991,0.200561530000186
-84.94671631,-121.22099304,0.200683600000048
-84.94402313,-121.2191391,0.200805670000136
-84.93569946,-121.2368927,0.200805670000136
-84.94435883,-121.21359253,0.200927740000225
-84.94407654,-121.24064636,0.201293950000036
-84.93849945,-121.22746277,0.201293950000036
-84.94257355,-121.2410965,0.201293950000036
-84.94873047,-121.22052765,0.201416020000124
-84.94567108,-121.23793793,0.201416020000124
-84.93804932,-121.22569275,0.201416020000124
-84.93630219,-121.22588348,0.201416020000124
-84.94676208,-121.21945953,0.201538090000213
-84.94788361,-121.23927307,0.201538090000213
-84.93551636,-121.21884155,0.201660160000074
-84.94725037,-121.23338318,0.201660160000074
-84.94532013,-121.2173996,0.201782230000163
-84.94802094,-121.23449707,0.201782230000163
-84.93891144,-121.21443939,0.201782230000163
-84.94730377,-121.24147797,0.202026370000112
-84.94155884,-121.21750641,0.202270510000062
-84.93032074,-121.22466278,0.202270510000062
-84.94972992,-121.22003174,0.202392580000151
-84.93730927,-121.22512817,0.202392580000151
-84.94563293,-121.23819733,0.2026367200001
-84.9418869,-121.23052979,0.2026367200001
-84.93354034,-121.22550201,0.2026367200001
-84.93965149,-121.23796082,0.2026367200001
-84.93598938,-121.2270813,0.202758790000189
-84.93817139,-121.22939301,0.203125
-84.94618988,-121.22489166,0.203125
-84.94779968,-121.21743011,0.203247070000089
-84.94065857,-121.22971344,0.203369140000177
-84.9330368,-121.217453,0.203369140000177
-84.94756317,-121.24044037,0.203491210000038
-84.94477844,-121.23358917,0.203491210000038
-84.94281769,-121.23226929,0.203735350000215
-84.93344879,-121.22020721,0.203735350000215
-84.94798279,-121.24295044,0.203857420000077
-84.94194031,-121.21272278,0.203857420000077
-84.94847107,-121.21822357,0.203857420000077
-84.93557739,-121.22402191,0.204101570000148
-84.93717194,-121.22882843,0.204101570000148
-84.93357086,-121.22419739,0.204101570000148
-84.9331665,-121.22894287,0.204223640000009
-84.93447113,-121.21946716,0.204223640000009
-84.94600677,-121.24186707,0.204345710000098
-84.94880676,-121.21666718,0.204467780000186
-84.93769073,-121.21256256,0.204467780000186
-84.94377136,-121.22836304,0.204467780000186
-84.93327332,-121.21766663,0.204589850000048
-84.93894958,-121.21208954,0.204711920000136
-84.94165039,-121.21367645,0.204833990000225
-84.93463135,-121.22221375,0.204833990000225
-84.94979858,-121.21759033,0.204833990000225
-84.94660187,-121.21533966,0.204956060000086
-84.94384766,-121.21917725,0.204956060000086
-84.94798279,-121.22994995,0.205200200000036
-84.94030762,-121.23213959,0.205200200000036
-84.94242096,-121.2129364,0.205322270000124
-84.93405151,-121.22442627,0.205322270000124
-84.9454422,-121.23863983,0.205444340000213
-84.93395996,-121.21916962,0.205444340000213
-84.94515991,-121.21327209,0.205566410000074
-84.93813324,-121.21404266,0.205566410000074
-84.93592072,-121.21270752,0.205810550000024
-84.93280792,-121.21611023,0.205810550000024
-84.94496155,-121.2350235,0.206054690000201
-84.94838715,-121.23712158,0.206420900000012
-84.93775177,-121.22550964,0.206420900000012
-84.93570709,-121.21893311,0.206665040000189
-84.93782806,-121.22299957,0.206909180000139
-84.93373871,-121.21784973,0.207153320000089
-84.9416275,-121.21360016,0.207397460000038
-84.9414978,-121.2078476,0.207763670000077
-84.94895935,-121.24234772,0.207885750000059
-84.93457794,-121.21459961,0.208007820000148
-84.9387207,-121.2259903,0.208007820000148
-84.93692017,-121.22743988,0.208007820000148
-84.94515228,-121.23621368,0.208129890000009
-84.93830872,-121.22322083,0.208129890000009
-84.93447113,-121.22585297,0.208129890000009
-84.92874146,-121.22489166,0.208862310000086
-84.9287262,-121.20484161,0.208862310000086
-84.94078827,-121.22325897,0.209350590000213
-84.93785095,-121.22142029,0.209350590000213
-84.9329834,-121.21724701,0.209350590000213
-84.94844818,-121.2360611,0.209716800000024
-84.94400787,-121.21634674,0.209716800000024
-84.93334198,-121.21375275,0.209716800000024
-84.94950104,-121.22341156,0.209716800000024
-84.9411087,-121.22875977,0.209838870000112
-84.93685913,-121.22863007,0.209838870000112
-84.93926239,-121.21618652,0.209960940000201
-84.94274139,-121.21679688,0.209960940000201
-84.93612671,-121.22033691,0.209960940000201
-84.93730164,-121.21486664,0.210083010000062
-84.94252777,-121.21553802,0.210205080000151
-84.94461823,-121.22834778,0.210571290000189
-84.94297028,-121.21701813,0.211181640000177
-84.94387817,-121.22779846,0.211303710000038
-84.9368515,-121.22857666,0.211303710000038
-84.9313736,-121.20404053,0.211303710000038
-84.94052124,-121.21543121,0.211425780000127
-84.93683624,-121.22080994,0.211547850000215
-84.94016266,-121.21996307,0.211547850000215
-84.93826294,-121.21559143,0.211914070000148
-84.94489288,-121.22705078,0.212280280000186
-84.94219208,-121.2254715,0.212280280000186
-84.94403076,-121.23052979,0.212402350000048
-84.94982147,-121.22373199,0.212646490000225
-84.93757629,-121.22879791,0.212768560000086
-84.94966125,-121.21842957,0.212890630000174
-84.93138885,-121.22660065,0.212890630000174
-84.93505859,-121.21343994,0.213256840000213
-84.94145203,-121.22490692,0.213256840000213
-84.94412231,-121.20977783,0.213256840000213
-84.93849182,-121.21555328,0.213378910000074
-84.93550873,-121.21495056,0.213378910000074
-84.94908905,-121.21190643,0.213378910000074
-84.94764709,-121.21833038,0.213867190000201
-84.92913818,-121.22624207,0.213867190000201
-84.94445801,-121.231987,0.213989260000062
-84.94210052,-121.21954346,0.213989260000062
-84.93802643,-121.21399689,0.2143554700001
-84.92965698,-121.22524261,0.21459961000005
-84.93872833,-121.20819855,0.214721680000139
-84.93602753,-121.21392059,0.21484375
-84.93573761,-121.21515656,0.21484375
-84.93901825,-121.2297821,0.21484375
-84.94177246,-121.1984787,0.21484375
-84.94219971,-121.21636963,0.214965820000089
-84.94792175,-121.21730042,0.215087890000177
-84.94563293,-121.21848297,0.215087890000177
-84.94017029,-121.24803925,0.215209960000038
-84.94468689,-121.21669006,0.215209960000038
-84.9345932,-121.21186066,0.215209960000038
-84.94542694,-121.23246765,0.215454100000215
-84.93341064,-121.21730804,0.215576170000077
-84.94391632,-121.22489929,0.215942390000009
-84.93614197,-121.21013641,0.215942390000009
-84.93565369,-121.21762848,0.215942390000009
-84.93804932,-121.21269989,0.216064460000098
-84.93318939,-121.21604156,0.216064460000098
-84.94750214,-121.23001099,0.216186530000186
-84.94226074,-121.24832916,0.216308600000048
-84.94970703,-121.2313385,0.216308600000048
-84.93395996,-121.21530914,0.216308600000048
-84.93733215,-121.21967316,0.216308600000048
-84.94008636,-121.20179749,0.216308600000048
-84.93997955,-121.21499634,0.216430670000136
-84.93682098,-121.21189117,0.216430670000136
-84.93974304,-121.2224884,0.216552740000225
-84.94091034,-121.24552155,0.216918950000036
-84.93588257,-121.21009064,0.216918950000036
-84.9464035,-121.2329483,0.217041020000124
-84.9329834,-121.21450043,0.217041020000124
-84.94953918,-121.23229218,0.217041020000124
-84.94133759,-121.21961212,0.217041020000124
-84.94439697,-121.24146271,0.217285160000074
-84.94181061,-121.21228027,0.217285160000074
-84.9417572,-121.21351624,0.217285160000074
-84.93293762,-121.21573639,0.217285160000074
-84.94445801,-121.21511078,0.217407230000163
-84.9434433,-121.21582794,0.217407230000163
-84.94760895,-121.21846008,0.217529300000024
-84.93934631,-121.21069336,0.217529300000024
-84.93390656,-121.20876312,0.217651370000112
-84.94537354,-121.22589111,0.217773440000201
-84.94886017,-121.2219696,0.217773440000201
-84.94699097,-121.21417999,0.217895510000062
-84.93977356,-121.22902679,0.217895510000062
-84.93195343,-121.21518707,0.218017580000151
-84.9377594,-121.22888947,0.218017580000151
-84.94645691,-121.21489716,0.218139650000012
-84.94959259,-121.22879791,0.218139650000012
-84.94315338,-121.22255707,0.218139650000012
-84.94613647,-121.23291016,0.2182617200001
-84.94957733,-121.23232269,0.21850586000005
-84.9367981,-121.21956635,0.21875
-84.93598938,-121.22930908,0.21875
-84.93714905,-121.19695282,0.21875
-84.94818878,-121.22782898,0.219116210000038
-84.94506073,-121.22708893,0.219116210000038
-84.93910217,-121.21717834,0.219238280000127
-84.94634247,-121.23413086,0.219360350000215
-84.93569183,-121.21501923,0.219360350000215
-84.93517303,-121.21575165,0.219360350000215
-84.94628143,-121.20924377,0.219360350000215
-84.94474792,-121.23951721,0.219482420000077
-84.94387054,-121.22502899,0.219482420000077
-84.9360199,-121.21251678,0.219482420000077
-84.93621826,-121.21401978,0.219604500000059
-84.94080353,-121.21166229,0.219726570000148
-84.93654633,-121.21927643,0.219726570000148
-84.94917297,-121.22202301,0.219726570000148
-84.93338776,-121.2084198,0.219848640000009
-84.94963074,-121.22582245,0.219848640000009
-84.93608856,-121.20999908,0.219970710000098
-84.93556213,-121.21099091,0.219970710000098
-84.94425964,-121.21250916,0.220336920000136
-84.94577789,-121.22756958,0.220336920000136
-84.94921875,-121.22424316,0.220458990000225
-84.94004822,-121.21111298,0.220458990000225
-84.93984985,-121.20960236,0.220703130000174
-84.9386673,-121.23082733,0.220825200000036
-84.93599701,-121.21247101,0.220947270000124
-84.93338013,-121.20838165,0.221069340000213
-84.93604279,-121.21121216,0.221191410000074
-84.93067932,-121.20677948,0.221313480000163
-84.94827271,-121.23538208,0.221435550000024
-84.93885803,-121.20903778,0.221435550000024
-84.94262695,-121.22418213,0.221435550000024
-84.93681335,-121.21823883,0.221435550000024
-84.94582367,-121.22602844,0.221557620000112
-84.9357605,-121.20603943,0.221679690000201
-84.94091034,-121.22567749,0.221923830000151
-84.94947815,-121.22309113,0.22241211000005
-84.94339752,-121.21299744,0.22241211000005
-84.94378662,-121.21092224,0.222534180000139
-84.94654083,-121.23426819,0.222778320000089
-84.93087006,-121.20799255,0.222778320000089
-84.94693756,-121.21401215,0.222900390000177
-84.93753815,-121.21846008,0.222900390000177
-84.93549347,-121.21214294,0.223022460000038
-84.94039917,-121.20729065,0.223144530000127
-84.94191742,-121.22235107,0.223144530000127
-84.94174957,-121.219841,0.223266600000215
-84.938797,-121.21798706,0.223266600000215
-84.94911957,-121.21647644,0.223510750000059
-84.94007874,-121.23278809,0.223510750000059
-84.9491806,-121.21405792,0.223632820000148
-84.9495163,-121.23484039,0.223632820000148
-84.94286346,-121.22248077,0.223632820000148
-84.9450531,-121.21016693,0.223754890000009
-84.93895721,-121.21296692,0.223754890000009
-84.93408966,-121.2088089,0.223876960000098
-84.94426727,-121.21112823,0.223999030000186
-84.94937897,-121.23107147,0.223999030000186
-84.93450928,-121.21131897,0.223999030000186
-84.94087219,-121.20776367,0.224365240000225
-84.93813324,-121.20742035,0.224365240000225
-84.93212128,-121.20773315,0.224365240000225
-84.93723297,-121.21189117,0.224487310000086
-84.93015289,-121.20641327,0.224487310000086
-84.94451141,-121.21913147,0.224609380000174
-84.94555664,-121.20939636,0.224731450000036
-84.93280792,-121.20924377,0.224853520000124
-84.94328308,-121.20966339,0.224853520000124
-84.94972229,-121.21450806,0.224975590000213
-84.93153381,-121.22174072,0.224975590000213
-84.94593048,-121.22115326,0.225341800000024
-84.9469223,-121.22418976,0.225463870000112
-84.94732666,-121.22221375,0.225585940000201
-84.9482193,-121.23005676,0.225585940000201
-84.94380951,-121.21707153,0.225708010000062
-84.93644714,-121.21257782,0.225708010000062
-84.94554901,-121.20935822,0.225952150000012
-84.93930054,-121.20941162,0.225952150000012
-84.94580078,-121.2248764,0.22631836000005
-84.93933105,-121.21589661,0.226440430000139
-84.93630981,-121.20880127,0.226440430000139
-84.94317627,-121.22077942,0.2265625
-84.93795776,-121.21985626,0.2265625
-84.94940186,-121.22947693,0.226684570000089
-84.94223022,-121.23999786,0.226928710000038
-84.94145966,-121.21945953,0.227050780000127
-84.94142151,-121.22094727,0.227050780000127
-84.94693756,-121.22038269,0.227172850000215
-84.94869995,-121.22769165,0.227172850000215
-84.93331909,-121.20816803,0.227294920000077
-84.94920349,-121.21579742,0.227417000000059
-84.94484711,-121.22306061,0.227417000000059
-84.94519806,-121.22132111,0.227417000000059
-84.94348907,-121.21074677,0.227539070000148
-84.94772339,-121.22714996,0.227661140000009
-84.93814087,-121.21356964,0.227783210000098
-84.93968964,-121.21987152,0.227783210000098
-84.93491364,-121.22071838,0.227783210000098
-84.92888641,-121.20549774,0.227905280000186
-84.94431305,-121.22402191,0.228027350000048
-84.93544006,-121.21196747,0.228027350000048
-84.93727875,-121.19924927,0.228027350000048
-84.94103241,-121.21690369,0.228149420000136
-84.94808197,-121.21678925,0.228149420000136
-84.94172668,-121.21066284,0.228271490000225
-84.94642639,-121.22006989,0.228393560000086
-84.94274139,-121.221138,0.228393560000086
-84.93344116,-121.21965027,0.228515630000174
-84.94467163,-121.22026062,0.228637700000036
-84.93887329,-121.22181702,0.228637700000036
-84.94750214,-121.21379852,0.228881840000213
-84.93583679,-121.22247314,0.228881840000213
-84.9422226,-121.21865845,0.229003910000074
-84.94463348,-121.22332764,0.229125980000163
-84.94037628,-121.22135925,0.229125980000163
-84.94547272,-121.21861267,0.229125980000163
-84.94264984,-121.21324158,0.229125980000163
-84.94573212,-121.22602844,0.229248050000024
-84.93493652,-121.21166992,0.229248050000024
-84.93096161,-121.19809723,0.229248050000024
-84.9384079,-121.22028351,0.229492190000201
-84.94412994,-121.21975708,0.229492190000201
-84.94589233,-121.2261734,0.229492190000201
-84.94965363,-121.21434021,0.229614260000062
-84.93623352,-121.20993042,0.2299804700001
-84.93211365,-121.22155762,0.2299804700001
-84.94700623,-121.2184906,0.230102540000189
-84.93959045,-121.22203827,0.230346680000139
-84.92875671,-121.21668243,0.230346680000139
-84.94608307,-121.22250366,0.23046875
-84.93663788,-121.22044373,0.23046875
-84.93144989,-121.21852112,0.23046875
-84.9462204,-121.22599792,0.230590820000089
-84.93157196,-121.22251892,0.230590820000089
-84.92797089,-121.21765137,0.230590820000089
-84.9466629,-121.22776031,0.230834960000038
-84.938797,-121.21524048,0.230834960000038
-84.93753815,-121.22345734,0.230834960000038
-84.94484711,-121.22168732,0.230957030000127
-84.94394684,-121.21626282,0.230957030000127
-84.93773651,-121.19629669,0.230957030000127
-84.94493103,-121.2191925,0.231079100000215
-84.94390869,-121.21990204,0.231079100000215
-84.94248199,-121.21759796,0.231201170000077
-84.93798828,-121.22496033,0.231201170000077
-84.93054199,-121.20770264,0.231323250000059
-84.94438934,-121.22357178,0.231323250000059
-84.94509125,-121.21392059,0.231445320000148
-84.93441772,-121.2113266,0.231445320000148
-84.93890381,-121.24256134,0.231567390000009
-84.93209076,-121.22151184,0.231567390000009
-84.94563293,-121.20600891,0.231811530000186
-84.94654083,-121.21669006,0.231933600000048
-84.94017792,-121.21099091,0.232055670000136
-84.93833923,-121.21367645,0.232055670000136
-84.93785858,-121.22093201,0.232055670000136
-84.92922211,-121.2171402,0.232055670000136
-84.94689178,-121.22796631,0.232177740000225
-84.94561768,-121.2284317,0.232177740000225
-84.94676208,-121.22421265,0.232299810000086
-84.93817902,-121.22644043,0.232299810000086
-84.93740845,-121.22715759,0.232299810000086
-84.93601227,-121.20834351,0.232421880000174
-84.94734192,-121.20288849,0.232421880000174
-84.93080902,-121.20667267,0.232543950000036
-84.93984985,-121.22097015,0.232543950000036
-84.94680023,-121.23045349,0.232910160000074
-84.94425201,-121.21956635,0.232910160000074
-84.93402863,-121.20726013,0.233032230000163
-84.94145203,-121.22663116,0.233520510000062
-84.9341507,-121.21124268,0.233642580000151
-84.93904877,-121.23477936,0.233764650000012
-84.94213104,-121.21199799,0.233764650000012
-84.93079376,-121.20662689,0.233764650000012
-84.943573,-121.19490051,0.233764650000012
-84.94709015,-121.21446228,0.2338867200001
-84.94429016,-121.23033142,0.2338867200001
-84.93733978,-121.21308899,0.234008790000189
-84.94245148,-121.21750641,0.234008790000189
-84.9467392,-121.22354126,0.234008790000189
-84.92945099,-121.21707916,0.23413086000005
-84.94702911,-121.23065948,0.234252930000139
-84.93847656,-121.20861053,0.234375
-84.92794037,-121.2175293,0.234375
-84.94271088,-121.20954132,0.234497070000089
-84.93782806,-121.22109222,0.234619140000177
-84.94648743,-121.22386932,0.234741210000038
-84.9407196,-121.21643066,0.234741210000038
-84.93585968,-121.21977234,0.234741210000038
-84.93161774,-121.21964264,0.234741210000038
-84.94754791,-121.22190094,0.234985350000215
-84.94671631,-121.21453094,0.234985350000215
-84.93798065,-121.20832062,0.235107420000077
-84.93721008,-121.21679688,0.235107420000077
-84.94293976,-121.21472931,0.235107420000077
-84.94239807,-121.21871948,0.235229500000059
-84.93414307,-121.21869659,0.235229500000059
-84.93385315,-121.21994019,0.235229500000059
-84.94914246,-121.2266922,0.235351570000148
-84.93560028,-121.21198273,0.235473640000009
-84.93360138,-121.20440674,0.235473640000009
-84.93997955,-121.21613312,0.235473640000009
-84.94199371,-121.22344971,0.235473640000009
-84.93698883,-121.2155304,0.235595710000098
-84.94471741,-121.22402954,0.235717780000186
-84.94294739,-121.20120239,0.235717780000186
-84.94767761,-121.21247101,0.235839850000048
-84.93849945,-121.21507263,0.235839850000048
-84.93579865,-121.21347809,0.235839850000048
-84.93785095,-121.21204376,0.235961920000136
-84.94139862,-121.21816254,0.235961920000136
-84.94477081,-121.2173996,0.235961920000136
-84.93723297,-121.21433258,0.236083990000225
-84.94300079,-121.22296143,0.236206060000086
-84.9447403,-121.21463776,0.236206060000086
-84.94638062,-121.20329285,0.236328130000174
-84.94986725,-121.23493958,0.236450200000036
-84.93588257,-121.21096039,0.236450200000036
-84.93367767,-121.21714783,0.236450200000036
-84.94592285,-121.20175934,0.236816410000074
-84.93157959,-121.20429993,0.236938480000163
-84.94589996,-121.21298981,0.236938480000163
-84.93273163,-121.20758057,0.237060550000024
-84.94258118,-121.20059967,0.237060550000024
-84.93985748,-121.23142242,0.237182620000112
-84.94898224,-121.21222687,0.237426760000062
-84.94795227,-121.22544861,0.237426760000062
-84.94558716,-121.21173859,0.237548830000151
-84.93955231,-121.22080231,0.237548830000151
-84.94548035,-121.21546936,0.237670900000012
-84.94814301,-121.22947693,0.237670900000012
-84.94571686,-121.21875,0.237670900000012
-84.93755341,-121.21296692,0.2377929700001
-84.93123627,-121.20675659,0.2377929700001
-84.94036102,-121.21881866,0.2377929700001
-84.93328857,-121.22084045,0.2377929700001
-84.93300629,-121.22183228,0.2377929700001
-84.93444061,-121.21636963,0.237915040000189
-84.93386841,-121.21835327,0.237915040000189
-84.93562317,-121.21839905,0.238159180000139
-84.94664001,-121.20223999,0.23828125
-84.94435883,-121.21092224,0.23828125
-84.9421463,-121.20960236,0.23828125
-84.94081116,-121.22032166,0.23828125
-84.93579102,-121.22090912,0.23828125
-84.94049835,-121.20732117,0.23828125
-84.94374084,-121.19914246,0.238403320000089
-84.947052,-121.20500183,0.238403320000089
-84.93843842,-121.2162323,0.238403320000089
-84.94113159,-121.22650146,0.238525390000177
-84.94611359,-121.20320892,0.238525390000177
-84.94509125,-121.20368195,0.238525390000177
-84.93380737,-121.20456696,0.238525390000177
-84.92996979,-121.2071991,0.238525390000177
-84.94567108,-121.22445679,0.238769530000127
-84.93728638,-121.21292877,0.238769530000127
-84.93821716,-121.2071991,0.238891600000215
-84.93183899,-121.20323944,0.238891600000215
-84.93408966,-121.2110672,0.238891600000215
-84.93315887,-121.20903778,0.238891600000215
-84.94068146,-121.21629333,0.238891600000215
-84.94551849,-121.21224213,0.239013670000077
-84.94342041,-121.2088623,0.239257820000148
-84.93479156,-121.22033691,0.239257820000148
-84.93353271,-121.22080231,0.239257820000148
-84.94792175,-121.2104187,0.239257820000148
-84.94048309,-121.22251892,0.239379890000009
-84.94619751,-121.21656036,0.239379890000009
-84.94864655,-121.2300415,0.239379890000009
-84.9466629,-121.22988892,0.239379890000009
-84.94915771,-121.21482849,0.239501960000098
-84.94937897,-121.22556305,0.239624030000186
-84.93894958,-121.21546173,0.239624030000186
-84.94391632,-121.20059967,0.239746100000048
-84.94644165,-121.22370911,0.239746100000048
-84.94381714,-121.21961212,0.239868170000136
-84.93016052,-121.20865631,0.239868170000136
-84.93421936,-121.22255707,0.239868170000136
-84.92725372,-121.20555878,0.239990240000225
-84.94226837,-121.22106171,0.240112310000086
-84.94553375,-121.20924377,0.240112310000086
-84.92877197,-121.20510101,0.240234380000174
-84.92868805,-121.20760345,0.240234380000174
-84.93707275,-121.21913147,0.240234380000174
-84.94783783,-121.20295715,0.240356450000036
-84.94683075,-121.20343018,0.240356450000036
-84.94879913,-121.21224976,0.240356450000036
-84.93125153,-121.20542145,0.240478520000124
-84.94107056,-121.20079803,0.240600590000213
-84.94127655,-121.22612,0.240966800000024
-84.94229889,-121.21977997,0.241088870000112
-84.94941711,-121.21369171,0.241210940000201
-84.94409943,-121.22373962,0.241210940000201
-84.9341507,-121.20848846,0.241333010000062
-84.9333725,-121.20922089,0.241333010000062
-84.93874359,-121.2213974,0.241333010000062
-84.94523621,-121.22161102,0.241455080000151
-84.93074799,-121.20511627,0.241455080000151
-84.94016266,-121.21594238,0.241455080000151
-84.94637299,-121.20963287,0.241577150000012
-84.93701935,-121.21257782,0.241577150000012
-84.93955231,-121.21942139,0.241577150000012
-84.94426727,-121.22596741,0.241577150000012
-84.94519043,-121.23030853,0.2416992200001
-84.93390656,-121.22373199,0.241821290000189
-84.94535828,-121.20899963,0.241821290000189
-84.94632721,-121.21060944,0.242065430000139
-84.9418869,-121.20391083,0.242431640000177
-84.93650818,-121.20452881,0.242553710000038
-84.93135071,-121.20159912,0.242553710000038
-84.92861938,-121.20877075,0.242553710000038
-84.9315567,-121.21061707,0.242675780000127
-84.94698334,-121.2334671,0.242675780000127
-84.94509888,-121.20980072,0.242797850000215
-84.92942047,-121.19927979,0.242797850000215
-84.93527985,-121.20397186,0.242919920000077
-84.94329071,-121.21923828,0.243042000000059
-84.93065643,-121.20757294,0.243042000000059
-84.93081665,-121.20256805,0.243164070000148
-84.93740082,-121.21555328,0.243164070000148
-84.93522644,-121.21296692,0.243286140000009
-84.94297791,-121.2143631,0.243286140000009
-84.93763733,-121.19882202,0.243286140000009
-84.93003845,-121.21103668,0.243408210000098
-84.94087982,-121.21640015,0.243408210000098
-84.93884277,-121.2253418,0.243530280000186
-84.94521332,-121.22154236,0.243652350000048
-84.93338776,-121.20789337,0.243652350000048
-84.93174744,-121.20433044,0.243652350000048
-84.9418869,-121.22205353,0.243652350000048
-84.94251251,-121.21994019,0.243774420000136
-84.93048859,-121.20478058,0.243896490000225
-84.92938232,-121.20800018,0.244018560000086
-84.94181061,-121.21840668,0.244018560000086
-84.93125153,-121.2042923,0.244384770000124
-84.94568634,-121.23139191,0.244384770000124
-84.94992065,-121.24150085,0.244384770000124
-84.94789124,-121.21872711,0.244506840000213
-84.94332886,-121.22544861,0.244506840000213
-84.92894745,-121.19770813,0.244506840000213
-84.9362793,-121.20320129,0.244506840000213
-84.92720795,-121.21317291,0.244506840000213
-84.94454956,-121.21399689,0.244506840000213
-84.93379211,-121.21061707,0.244628910000074
-84.93911743,-121.20131683,0.244628910000074
-84.93048096,-121.21251678,0.244750980000163
-84.92945862,-121.21322632,0.244750980000163
-84.92962646,-121.21882629,0.244873050000024
-84.94351959,-121.22693634,0.245117190000201
-84.94068909,-121.20607758,0.245117190000201
-84.93615723,-121.21469116,0.245117190000201
-84.94259644,-121.22312927,0.245117190000201
-84.93399811,-121.21495819,0.245117190000201
-84.94232941,-121.2171402,0.245239260000062
-84.93910217,-121.21652985,0.245239260000062
-84.93235779,-121.24848938,0.245361330000151
-84.94824982,-121.21182251,0.245361330000151
-84.94299316,-121.22016144,0.245361330000151
-84.9368515,-121.20870209,0.245361330000151
-84.9446106,-121.20844269,0.245483400000012
-84.9316864,-121.20552063,0.245483400000012
-84.94570923,-121.21234894,0.245483400000012
-84.93508911,-121.23948669,0.2456054700001
-84.93385315,-121.20057678,0.2456054700001
-84.94077301,-121.21881866,0.245727540000189
-84.94306183,-121.22067261,0.245727540000189
-84.94628906,-121.21048737,0.24584961000005
-84.94367218,-121.22190857,0.24584961000005
-84.93029785,-121.20996857,0.24584961000005
-84.93611145,-121.21591187,0.24609375
-84.94023895,-121.22754669,0.24609375
-84.9276123,-121.21588135,0.24609375
-84.94613647,-121.2071228,0.24609375
-84.94803619,-121.20968628,0.246215820000089
-84.93222046,-121.20452118,0.246215820000089
-84.94853973,-121.22605896,0.246337890000177
-84.92923737,-121.21166992,0.246459960000038
-84.93875885,-121.21897888,0.246459960000038
-84.93406677,-121.21707916,0.246459960000038
-84.92829132,-121.20987701,0.246582030000127
-84.94219208,-121.22109222,0.246582030000127
-84.93894196,-121.22612762,0.246704100000215
-84.92510986,-121.2155304,0.246704100000215
-84.94486237,-121.21730804,0.246704100000215
-84.9431076,-121.21717834,0.246704100000215
-84.93985748,-121.23793793,0.246826170000077
-84.94075775,-121.21878815,0.246826170000077
-84.93241119,-121.20600128,0.247070320000148
-84.94425201,-121.23809052,0.247070320000148
-84.93704224,-121.21080017,0.247070320000148
-84.94600677,-121.24449921,0.247192390000009
-84.93209076,-121.20822906,0.247314460000098
-84.94000244,-121.22194672,0.247314460000098
-84.93550873,-121.21058655,0.247436530000186
-84.93557739,-121.23700714,0.247558600000048
-84.93408203,-121.20828247,0.247558600000048
-84.93850708,-121.21868896,0.247558600000048
-84.94132233,-121.2180481,0.247558600000048
-84.94415283,-121.22296143,0.247680670000136
-84.94332123,-121.20842743,0.247680670000136
-84.94168091,-121.20526886,0.247802740000225
-84.93386841,-121.1992569,0.247802740000225
-84.93151093,-121.21044159,0.247924810000086
-84.93401337,-121.21827698,0.247924810000086
-84.93894958,-121.21243286,0.248046880000174
-84.9258728,-121.21475983,0.248046880000174
-84.92407227,-121.21620941,0.248046880000174
-84.93755341,-121.20137024,0.248168950000036
-84.93228149,-121.20970917,0.248168950000036
-84.94509125,-121.20530701,0.248168950000036
-84.94010925,-121.22199249,0.248291020000124
-84.94728851,-121.2252121,0.248291020000124
-84.93115997,-121.19766235,0.248291020000124
-84.94072723,-121.20346832,0.248291020000124
-84.94045258,-121.21221924,0.248291020000124
-84.93800354,-121.21063995,0.248291020000124
-84.93521881,-121.21154785,0.248291020000124
-84.92938232,-121.20661163,0.248291020000124
-84.94535065,-121.21485901,0.248291020000124
-84.94844055,-121.20799255,0.248413090000213
-84.93147278,-121.21942902,0.248413090000213
-84.93933868,-121.22442627,0.248535160000074
-84.94490814,-121.20780945,0.248657230000163
-84.94315338,-121.22071838,0.248657230000163
-84.94093323,-121.22982025,0.248657230000163
-84.94470215,-121.21334839,0.248779300000024
-84.94483185,-121.22386169,0.248779300000024
-84.94191742,-121.2159729,0.248901370000112
-84.93125153,-121.21040344,0.248901370000112
-84.94809723,-121.23097229,0.249023440000201
-84.93141937,-121.21291351,0.249023440000201
-84.94606781,-121.2124176,0.249023440000201
-84.93161774,-121.21440887,0.249267580000151
-84.93977356,-121.23760223,0.249389650000012
-84.9344101,-121.24868011,0.249389650000012
-84.93022156,-121.20334625,0.249389650000012
-84.93283844,-121.20742798,0.2495117200001
-84.93058777,-121.21511841,0.2495117200001
-84.94159698,-121.20938873,0.2495117200001
-84.94011688,-121.22218323,0.249633790000189
-84.93797302,-121.22032928,0.24975586000005
-84.93631744,-121.24188232,0.24975586000005
-84.93267059,-121.21266937,0.24975586000005
-84.94428253,-121.21305084,0.24975586000005
-84.92825317,-121.20227051,0.249877930000139
-84.93054962,-121.20860291,0.249877930000139
-84.93518829,-121.23641205,0.249877930000139
-84.9365387,-121.19023132,0.249877930000139
