"X","Y","Z"
-84.84842682,-121.454422,0.154541020000124
-84.84870148,-121.45471191,0.1557617200001
-84.84876251,-121.45774078,0.157226570000148
-84.8482132,-121.45948792,0.15991211000005
-84.84850311,-121.45980072,0.161865240000225
-84.84851074,-121.46307373,0.162597660000074
-84.8498764,-121.46192932,0.163330080000151
-84.84858704,-121.46559906,0.1635742200001
-84.84768677,-121.46151733,0.164428710000038
-84.84992218,-121.46195984,0.164794920000077
-84.84526062,-121.46385193,0.164917000000059
-84.84725952,-121.46401215,0.165161140000009
-84.84755707,-121.46705627,0.166137700000036
-84.84976196,-121.46147156,0.166625980000163
-84.84619141,-121.45944214,0.1674804700001
-84.84037781,-121.45372772,0.16796875
-84.84754944,-121.45831299,0.168212890000177
-84.8433609,-121.46073914,0.168579100000215
-84.84513855,-121.46063995,0.169067390000009
-84.84577942,-121.4589386,0.169311530000186
-84.84234619,-121.45896149,0.171875
-84.84712219,-121.48008728,0.184936530000186
-84.84781647,-121.48349762,0.191772460000038
-84.84519196,-121.48531342,0.192382820000148
-84.84992218,-121.48671722,0.194702150000012
-84.84684753,-121.48748016,0.1948242200001
-84.84934235,-121.47387695,0.199951170000077
-84.84887695,-121.49273682,0.200561530000186
-84.849617,-121.49358368,0.202392580000151
-84.84596252,-121.48387146,0.204956060000086
-84.84860992,-121.49506378,0.205810550000024
-84.84964752,-121.49137878,0.205932620000112
-84.8466568,-121.49491882,0.207153320000089
-84.84886169,-121.48612213,0.207885750000059
-84.84957123,-121.47107697,0.209350590000213
-84.84533691,-121.48621368,0.209350590000213
-84.84960938,-121.4853363,0.209594730000163
-84.84896851,-121.48873138,0.212402350000048
-84.84571838,-121.4805603,0.213867190000201
-84.84824371,-121.49716949,0.215332030000127
-84.84911346,-121.4957428,0.215576170000077
-84.84526062,-121.48594666,0.217041020000124
-84.84564972,-121.4957428,0.217163090000213
-84.84767151,-121.48075104,0.217651370000112
-84.84458923,-121.49993134,0.217895510000062
-84.84815979,-121.48821259,0.219726570000148
-84.84635162,-121.48935699,0.220947270000124
-84.84374237,-121.49614716,0.221191410000074
-84.84887695,-121.49781036,0.221313480000163
-84.84403229,-121.49893951,0.221435550000024
-84.84137726,-121.49799347,0.222534180000139
-84.8469696,-121.49282074,0.223022460000038
-84.84631348,-121.49990845,0.224609380000174
-84.84915161,-121.4788208,0.224853520000124
-84.8443222,-121.48116302,0.224853520000124
-84.84874725,-121.49759674,0.224853520000124
-84.84303284,-121.48957825,0.226440430000139
-84.84905243,-121.49765015,0.2265625
-84.84459686,-121.49404907,0.227539070000148
-84.84667969,-121.49674225,0.228637700000036
-84.84490967,-121.47704315,0.229003910000074
-84.84358978,-121.47872925,0.229614260000062
-84.84358215,-121.49826813,0.229736330000151
-84.84715271,-121.49781036,0.230346680000139
-84.84207153,-121.49865723,0.23046875
-84.84855652,-121.49944305,0.231323250000059
-84.84507751,-121.47846222,0.231811530000186
-84.84234619,-121.49311829,0.232299810000086
-84.83986664,-121.49877167,0.232543950000036
-84.84282684,-121.47808838,0.233032230000163
-84.84017944,-121.49024963,0.233642580000151
-84.84194946,-121.49845123,0.234008790000189
-84.84396362,-121.49861908,0.234741210000038
-84.8408432,-121.49713898,0.235595710000098
-84.84298706,-121.47975922,0.235839850000048
-84.84470367,-121.49945068,0.236206060000086
-84.84142303,-121.48970032,0.236450200000036
-84.83883667,-121.49186707,0.236450200000036
-84.84295654,-121.4879837,0.237060550000024
-84.84533691,-121.48403931,0.237548830000151
-84.8404007,-121.4818573,0.237915040000189
-84.84855652,-121.4995575,0.239746100000048
-84.84072113,-121.48655701,0.240112310000086
-84.84201813,-121.48452759,0.24194336000005
-84.84999847,-121.49846649,0.243042000000059
-84.84803772,-121.47514343,0.244506840000213
-84.84980011,-121.49846649,0.244506840000213
-84.83862305,-121.49558258,0.245361330000151
-84.84155273,-121.49791718,0.245483400000012
-84.83927155,-121.49082184,0.246215820000089
-84.83711243,-121.49437714,0.24975586000005
