"X","Y","Z"
-84.99521637,-121.34680176,0.354492190000201
-84.98130798,-121.34950256,0.361572270000124
-84.99198151,-121.34739685,0.365234380000174
-84.98274994,-121.34703064,0.36694336000005
-84.99510193,-121.34371185,0.368042000000059
-84.98127747,-121.34777832,0.368286140000009
-84.98327637,-121.34783173,0.368530280000186
-84.98356628,-121.34658051,0.369018560000086
-84.99069977,-121.34976959,0.370117190000201
-84.97969055,-121.34963989,0.37084961000005
-84.98475647,-121.34754944,0.37109375
-84.98445892,-121.34876251,0.372070320000148
-84.98503876,-121.34600067,0.372680670000136
-84.98197174,-121.34983063,0.372802740000225
-84.98351288,-121.34668732,0.373291020000124
-84.98719025,-121.34905243,0.373413090000213
-84.98542786,-121.34922791,0.373901370000112
-84.9865799,-121.34868622,0.3745117200001
-84.981987,-121.3468399,0.37475586000005
-84.98612213,-121.34268951,0.375610350000215
-84.98715973,-121.34896088,0.376098640000009
-84.98980713,-121.34375,0.377441410000074
-84.98480988,-121.34993744,0.382080080000151
-84.99787903,-121.34261322,0.382202150000012
-84.9930191,-121.34654999,0.3828125
-84.98464203,-121.34715271,0.383056640000177
-84.98712921,-121.347229,0.383300780000127
-84.98348999,-121.34358215,0.383911140000009
-84.98442841,-121.34535217,0.384521490000225
-84.98840332,-121.34226227,0.385131840000213
-84.98441315,-121.34555054,0.385986330000151
-84.98480225,-121.34854126,0.386596680000139
-84.98809814,-121.34661102,0.387817390000009
-84.98061371,-121.34973145,0.387939460000098
-84.99649811,-121.33661652,0.388305670000136
-84.98641205,-121.34398651,0.389648440000201
-84.97142792,-121.34960175,0.389648440000201
-84.9796524,-121.34452057,0.389892580000151
-84.98786163,-121.3449707,0.391723640000009
-84.98986053,-121.34477234,0.392211920000136
-84.96943665,-121.34989166,0.392944340000213
-84.99138641,-121.34323883,0.39453125
-84.96916962,-121.3470993,0.39453125
-84.98152924,-121.34660339,0.394653320000089
-84.97206116,-121.3462677,0.396606450000036
-84.9927063,-121.34945679,0.401611330000151
-84.98428345,-121.34378052,0.401733400000012
-84.98581696,-121.34793091,0.401733400000012
-84.98480988,-121.34277344,0.402709960000038
-84.97348022,-121.34863281,0.404174810000086
-84.96833801,-121.34699249,0.406127930000139
-84.98973846,-121.34327698,0.406982420000077
-84.96856689,-121.3496933,0.408203130000174
-84.98719025,-121.34413147,0.409179690000201
-84.98451233,-121.34927368,0.41015625
-84.957901,-121.34980774,0.411010750000059
-84.99336243,-121.34545898,0.412841800000024
-84.97557068,-121.34777069,0.413452150000012
-84.98403168,-121.34819794,0.415283210000098
-84.98227692,-121.34844971,0.418212890000177
-84.9694519,-121.34924316,0.420410160000074
-84.98628235,-121.34470367,0.421508790000189
-84.97792053,-121.3496933,0.421508790000189
-84.96676636,-121.34990692,0.423583990000225
-84.98158264,-121.34996796,0.424072270000124
-84.98734283,-121.34799957,0.428833010000062
