"X","Y","Z"
-84.98622894,-121.22714233,0.250488280000127
-84.98455811,-121.23233795,0.250610350000215
-84.97624969,-121.22631836,0.250610350000215
-84.9565506,-121.23219299,0.250610350000215
-84.9781723,-121.22863007,0.250732420000077
-84.95652771,-121.21260071,0.250976570000148
-84.99919128,-121.22855377,0.250976570000148
-84.96336365,-121.2146225,0.251098640000009
-84.95449829,-121.23361206,0.251098640000009
-84.95343018,-121.20633698,0.251220710000098
-84.98545074,-121.23560333,0.251342780000186
-84.96585083,-121.21469116,0.251342780000186
-84.9511795,-121.20654297,0.251464850000048
-84.99761963,-121.23023224,0.251708990000225
-84.98703003,-121.22512817,0.251708990000225
-84.99572754,-121.22666168,0.251831060000086
-84.96613312,-121.21367645,0.252075200000036
-84.99819183,-121.23574066,0.252197270000124
-84.98531342,-121.23181915,0.252197270000124
-84.96813965,-121.22125244,0.252197270000124
-84.9575119,-121.20877075,0.252319340000213
-84.96028137,-121.21647644,0.252441410000074
-84.96070862,-121.21192932,0.252563480000163
-84.9919281,-121.22801208,0.252563480000163
-84.99646759,-121.23467255,0.252563480000163
-84.98457336,-121.23126984,0.252929690000201
-84.95897675,-121.21099091,0.253173830000151
-84.95339966,-121.20626831,0.253173830000151
-84.9983902,-121.23696136,0.253173830000151
-84.97135925,-121.22181702,0.253173830000151
-84.9768219,-121.21523285,0.253540040000189
-84.99727631,-121.23240662,0.253540040000189
-84.95848846,-121.2049408,0.253784180000139
-84.9509964,-121.2069931,0.25390625
-84.95540619,-121.20735168,0.254028320000089
-84.96161652,-121.23674011,0.254028320000089
-84.99265289,-121.23623657,0.254394530000127
-84.95178986,-121.20762634,0.254516600000215
-84.98045349,-121.21855927,0.254638670000077
-84.98679352,-121.22351837,0.254882820000148
-84.95773315,-121.23284149,0.254882820000148
-84.95858002,-121.21408844,0.255004890000009
-84.96385956,-121.23652649,0.255126960000098
-84.96082306,-121.21414948,0.255371100000048
-84.95717621,-121.21077728,0.255371100000048
-84.97276306,-121.22403717,0.255493170000136
-84.95144653,-121.20555115,0.255615240000225
-84.9992218,-121.23365784,0.255615240000225
-84.96225739,-121.21618652,0.255615240000225
-84.99378967,-121.23922729,0.255737310000086
-84.95970917,-121.2158432,0.255859380000174
-84.9569931,-121.23227692,0.255859380000174
-84.95879364,-121.21143341,0.255981450000036
-84.96613312,-121.220047,0.256347660000074
-84.95053864,-121.20677948,0.256469730000163
-84.99893188,-121.24237061,0.256591800000024
-84.99555969,-121.2302475,0.256713870000112
-84.99504089,-121.23873138,0.256958010000062
-84.98100281,-121.21624756,0.257080080000151
-84.96021271,-121.21337891,0.2573242200001
-84.97515106,-121.21904755,0.257446290000189
-84.96523285,-121.23999786,0.257446290000189
-84.96444702,-121.24073029,0.257446290000189
-84.95424652,-121.20761108,0.25756836000005
-84.96674347,-121.2395401,0.257690430000139
-84.98999023,-121.22427368,0.257934570000089
-84.98066711,-121.22621155,0.258178710000038
-84.9662323,-121.21623993,0.258178710000038
-84.95613861,-121.23442078,0.258422850000215
-84.98285675,-121.22001648,0.258544920000077
-84.97350311,-121.21544647,0.258789070000148
-84.97792816,-121.2256012,0.258911140000009
-84.95178223,-121.20623016,0.259033210000098
-84.96157074,-121.2365799,0.259033210000098
-84.97045135,-121.24035645,0.259277350000048
-84.9642868,-121.21363068,0.259643560000086
-84.98085022,-121.21990967,0.259765630000174
-84.98731232,-121.22136688,0.259887700000036
-84.98097229,-121.22392273,0.259887700000036
-84.98069,-121.22490692,0.259887700000036
-84.9779892,-121.22331238,0.260009770000124
-84.95050049,-121.20665741,0.260009770000124
-84.95973969,-121.21489716,0.260131840000213
-84.97913361,-121.21884155,0.260131840000213
-84.97744751,-121.21653748,0.260131840000213
-84.9833374,-121.2202301,0.260253910000074
-84.97789764,-121.22579956,0.260375980000163
-84.97570038,-121.22422791,0.260375980000163
-84.98452759,-121.22975922,0.260620120000112
-84.99176025,-121.22248077,0.260986330000151
-84.97625732,-121.22221375,0.26147461000005
-84.96015167,-121.21322632,0.261596680000139
-84.97147369,-121.24656677,0.26171875
-84.97644806,-121.21595001,0.261840820000089
-84.9887619,-121.2220993,0.261840820000089
-84.98446655,-121.22345734,0.261840820000089
-84.97232056,-121.21231079,0.261840820000089
-84.95670319,-121.20778656,0.262084960000038
-84.98430634,-121.22820282,0.262329100000215
-84.98249817,-121.22212982,0.262329100000215
-84.96205139,-121.21246338,0.262329100000215
-84.97914886,-121.22527313,0.262695320000148
-84.96118164,-121.2096405,0.262939460000098
-84.98847198,-121.2308197,0.262939460000098
-84.98609924,-121.22673035,0.263061530000186
-84.96501923,-121.21304321,0.263061530000186
-84.95375824,-121.22894287,0.263061530000186
-84.97379303,-121.24385071,0.263183600000048
-84.98407745,-121.2193985,0.263305670000136
-84.95263672,-121.2091217,0.263305670000136
-84.96916199,-121.21666718,0.263305670000136
-84.95236206,-121.22563171,0.263427740000225
-84.96965027,-121.20916748,0.263549810000086
-84.95639801,-121.20874023,0.263671880000174
-84.95680237,-121.21174622,0.263671880000174
-84.95030212,-121.2040329,0.263671880000174
-84.9552536,-121.20568848,0.263793950000036
-84.95496368,-121.2066803,0.263793950000036
-84.97447968,-121.24559784,0.264038090000213
-84.95381165,-121.20372009,0.264160160000074
-84.9545517,-121.2039032,0.264160160000074
-84.95717621,-121.20887756,0.264404300000024
-84.9606781,-121.20760345,0.264404300000024
-84.99739838,-121.22480011,0.264526370000112
-84.98783112,-121.22673798,0.264526370000112
-84.96105194,-121.21160889,0.264526370000112
-84.95423889,-121.22915649,0.264526370000112
-84.98500824,-121.22113037,0.264770510000062
-84.95339203,-121.20084381,0.264770510000062
-84.95449066,-121.2053833,0.264770510000062
-84.95806122,-121.21125793,0.264770510000062
-84.98268127,-121.22355652,0.264892580000151
-84.98538208,-121.22515106,0.264892580000151
-84.97913361,-121.24846649,0.264892580000151
-84.98117065,-121.21598816,0.2651367200001
-84.98722076,-121.22994995,0.2651367200001
-84.96778107,-121.21205902,0.2651367200001
-84.95825195,-121.20498657,0.265258790000189
-84.95706177,-121.20319366,0.26538086000005
-84.99092865,-121.22355652,0.265502930000139
-84.96205902,-121.21111298,0.265502930000139
-84.9559021,-121.23143005,0.265625
-84.96118927,-121.20979309,0.265747070000089
-84.99714661,-121.22450256,0.265747070000089
-84.95166779,-121.20726013,0.265747070000089
-84.95065308,-121.2002182,0.265747070000089
-84.97934723,-121.217659,0.265869140000177
-84.9776001,-121.21785736,0.265869140000177
-84.96774292,-121.21327972,0.265869140000177
-84.96315002,-121.20787048,0.266113280000127
-84.95230865,-121.20275879,0.266113280000127
-84.95462036,-121.2321167,0.266113280000127
-84.98503113,-121.219841,0.266235350000215
-84.95723724,-121.2080307,0.266357420000077
-84.97666168,-121.24684143,0.266357420000077
-84.97872925,-121.21337128,0.266479500000059
-84.98249817,-121.2207489,0.266479500000059
-84.96658325,-121.20996857,0.266479500000059
-84.95522308,-121.20559692,0.266479500000059
-84.95877838,-121.21147156,0.266479500000059
-84.9849472,-121.22232056,0.266601570000148
-84.98400879,-121.22054291,0.266601570000148
-84.97939301,-121.21639252,0.266601570000148
-84.98813629,-121.22418213,0.266723640000009
-84.9866333,-121.22463226,0.266723640000009
-84.96054077,-121.21127319,0.266723640000009
-84.95934296,-121.20948029,0.266723640000009
-84.96360016,-121.20935822,0.266967780000186
-84.95419312,-121.20629883,0.266967780000186
-84.95179749,-121.20274353,0.267089850000048
-84.9799118,-121.21539307,0.267089850000048
-84.98465729,-121.22329712,0.267089850000048
-84.9900589,-121.22673035,0.267089850000048
-84.99115753,-121.23126221,0.267211920000136
-84.97725677,-121.220047,0.267211920000136
-84.97087097,-121.21633911,0.267211920000136
-84.95796204,-121.22894287,0.267333990000225
-84.95198059,-121.20496368,0.267456060000086
-84.96257782,-121.233078,0.267456060000086
-84.95359039,-121.23278809,0.267578130000174
-84.9574585,-121.21405792,0.267822270000124
-84.97221375,-121.21336365,0.267944340000213
-84.95973969,-121.21219635,0.268066410000074
-84.95781708,-121.20963287,0.268188480000163
-84.98922729,-121.22866058,0.268310550000024
-84.98146057,-121.22141266,0.268310550000024
-84.99291229,-121.23078156,0.268432620000112
-84.96710205,-121.20892334,0.268432620000112
-84.95850372,-121.20388794,0.268432620000112
-84.98626709,-121.21929932,0.268554690000201
-84.98652649,-121.22707367,0.268554690000201
-84.95879364,-121.20263672,0.268676760000062
-84.95622253,-121.2048111,0.268676760000062
-84.95146942,-121.20465851,0.268676760000062
-84.9761734,-121.21446228,0.268798830000151
-84.99633789,-121.23287964,0.268798830000151
-84.96198273,-121.21224976,0.268798830000151
-84.98262787,-121.21565247,0.269409180000139
-84.99047852,-121.2281723,0.269409180000139
-84.97248077,-121.21231842,0.269409180000139
-84.9537735,-121.22647858,0.269409180000139
-84.95973969,-121.2140274,0.26953125
-84.99530029,-121.22606659,0.26953125
-84.95838928,-121.21124268,0.269775390000177
-84.95874023,-121.20385742,0.269775390000177
-84.97383118,-121.21685028,0.269775390000177
-84.96022797,-121.23542786,0.270019530000127
-84.97583771,-121.21665955,0.270141600000215
-84.95809174,-121.20488739,0.270263670000077
-84.9899826,-121.22010803,0.270385750000059
-84.96466827,-121.2060318,0.270385750000059
-84.98307037,-121.21713257,0.270629890000009
-84.98339081,-121.22264099,0.270629890000009
-84.96121979,-121.20413971,0.270996100000048
-84.9622879,-121.20968628,0.270996100000048
-84.95871735,-121.20406342,0.270996100000048
-84.96304321,-121.23323822,0.270996100000048
-84.98612976,-121.22296906,0.271118170000136
-84.99855042,-121.22534943,0.271606450000036
-84.9876709,-121.22149658,0.271606450000036
-84.98297119,-121.219841,0.271728520000124
-84.95565033,-121.20594025,0.271728520000124
-84.98338318,-121.22260284,0.271850590000213
-84.95555878,-121.20507813,0.272216800000024
-84.95417786,-121.20487976,0.272216800000024
-84.96257019,-121.23168182,0.272216800000024
-84.95220947,-121.20381165,0.272460940000201
-84.96276093,-121.21013641,0.272705080000151
-84.96079254,-121.20881653,0.2729492200001
-84.95213318,-121.20091248,0.273071290000189
-84.97331238,-121.23948669,0.273559570000089
-84.99269104,-121.22033691,0.273681640000177
-84.99411774,-121.23014832,0.273681640000177
-84.98937225,-121.22223663,0.273681640000177
-84.96144104,-121.20406342,0.273803710000038
-84.9519577,-121.22653198,0.273925780000127
-84.97302246,-121.2407074,0.274292000000059
-84.99201965,-121.22530365,0.274536140000009
-84.98892212,-121.22044373,0.274536140000009
-84.99194336,-121.22003937,0.274658210000098
-84.96351624,-121.20909882,0.274658210000098
-84.99149323,-121.21826172,0.274780280000186
-84.96598053,-121.24146271,0.274780280000186
-84.99165344,-121.22102356,0.274902350000048
-84.96846008,-121.21099854,0.275024420000136
-84.97228241,-121.24015808,0.275024420000136
-84.99619293,-121.22766113,0.275146490000225
-84.97427368,-121.24021912,0.275146490000225
-84.95272827,-121.22550964,0.275146490000225
-84.99246979,-121.22653961,0.275390630000174
-84.99999237,-121.23378754,0.275390630000174
-84.95368958,-121.20326233,0.275390630000174
-84.96842194,-121.21198273,0.275878910000074
-84.96920013,-121.24228668,0.275878910000074
-84.96669006,-121.20340729,0.276000980000163
-84.96762085,-121.20543671,0.276123050000024
-84.95150757,-121.20066071,0.276245120000112
-84.98055267,-121.21560669,0.276367190000201
-84.96782684,-121.2066803,0.276611330000151
-84.96058655,-121.20619965,0.276611330000151
-84.97786713,-121.24453735,0.276733400000012
-84.99179077,-121.22370911,0.276977540000189
-84.95980835,-121.20690155,0.27709961000005
-84.98058319,-121.21433258,0.27734375
-84.96749115,-121.20913696,0.277465820000089
-84.95098877,-121.21661377,0.277587890000177
-84.9573822,-121.20429993,0.277709960000038
-84.95612335,-121.20475769,0.277709960000038
-84.97350311,-121.20883179,0.277832030000127
-84.96839142,-121.21190643,0.277832030000127
-84.97511292,-121.24440765,0.277954100000215
-84.96781158,-121.20664215,0.277954100000215
-84.9717865,-121.23854065,0.277954100000215
-84.95739746,-121.20677948,0.278076170000077
-84.97760773,-121.24449158,0.278076170000077
-84.97910309,-121.21350098,0.278320320000148
-84.96418762,-121.23378754,0.278320320000148
-84.95887756,-121.20900726,0.278442390000009
-84.951828,-121.22112274,0.278442390000009
-84.97810364,-121.21292877,0.279174810000086
-84.97384644,-121.21279907,0.279174810000086
-84.99822998,-121.22483826,0.279296880000174
-84.9504776,-121.22405243,0.279296880000174
-84.97659302,-121.21312714,0.279418950000036
-84.96775818,-121.20783234,0.279418950000036
-84.95554352,-121.22219849,0.279541020000124
-84.95043182,-121.2175293,0.279541020000124
-84.96885681,-121.21237183,0.279663090000213
-84.96221161,-121.23267365,0.279663090000213
-84.95423126,-121.22389984,0.279907230000163
-84.95448303,-121.20755768,0.280029300000024
-84.97274017,-121.20822906,0.280029300000024
-84.98011017,-121.24375153,0.280273440000201
-84.97102356,-121.20716095,0.280517580000151
-84.97930908,-121.21366119,0.28100586000005
-84.9557724,-121.22216034,0.28100586000005
-84.97918701,-121.21740723,0.281127930000139
-84.95977783,-121.22979736,0.281127930000139
-84.96292114,-121.23314667,0.28125
-84.96205139,-121.20558929,0.281372070000089
-84.97341919,-121.20993805,0.281860350000215
-84.96936798,-121.21131134,0.281860350000215
-84.97843933,-121.21685028,0.282104500000059
-84.98545074,-121.24810791,0.282226570000148
-84.98150635,-121.24569702,0.283081060000086
-84.97987366,-121.21111298,0.283203130000174
-84.97788239,-121.24208069,0.283203130000174
-84.97975159,-121.21485138,0.283325200000036
-84.97267914,-121.24015045,0.283325200000036
-84.95790863,-121.22463989,0.283935550000024
-84.97841644,-121.20903015,0.284057620000112
-84.99768829,-121.22441864,0.284057620000112
-84.95700836,-121.22936249,0.284057620000112
-84.97662354,-121.21047211,0.284179690000201
-84.95931244,-121.20414734,0.284301760000062
-84.96440887,-121.23258972,0.284545900000012
-84.98136139,-121.21861267,0.2846679700001
-84.9535675,-121.22722626,0.2846679700001
-84.95738983,-121.20574951,0.284790040000189
-84.95982361,-121.22717285,0.285034180000139
-84.98423004,-121.24597168,0.28515625
-84.95237732,-121.22516632,0.28515625
-84.98026276,-121.24484253,0.285278320000089
-84.95329285,-121.20326233,0.285400390000177
-84.95214081,-121.20017242,0.285522460000038
-84.98179626,-121.21234894,0.285522460000038
-84.96813965,-121.20939636,0.285522460000038
-84.95464325,-121.20120239,0.285888670000077
-84.95854187,-121.22783661,0.286010750000059
-84.95674896,-121.22128296,0.286010750000059
-84.9552536,-121.20410156,0.286132820000148
-84.98072815,-121.2142868,0.286254890000009
-84.98065186,-121.21678925,0.286376960000098
-84.96573639,-121.22931671,0.286376960000098
-84.97795105,-121.21518707,0.286621100000048
-84.98529816,-121.21967316,0.286987310000086
-84.98686981,-121.24874878,0.286987310000086
-84.95054626,-121.20352173,0.287109380000174
-84.95828247,-121.22754669,0.287231450000036
-84.96949005,-121.23692322,0.287231450000036
-84.96266174,-121.23143768,0.287231450000036
-84.99404907,-121.21968842,0.287353520000124
-84.96983337,-121.21038818,0.287597660000074
-84.97232819,-121.21045685,0.287841800000024
-84.95844269,-121.22228241,0.287841800000024
-84.96585083,-121.23327637,0.287841800000024
-84.96526337,-121.2279892,0.288085940000201
-84.98435211,-121.21759796,0.288208010000062
-84.96264648,-121.23139191,0.288696290000189
-84.97115326,-121.23916626,0.28881836000005
-84.95607758,-121.20188904,0.288940430000139
-84.97041321,-121.23088074,0.289306640000177
-84.96543884,-121.20619202,0.289428710000038
-84.95548248,-121.2206192,0.289550780000127
-84.95246124,-121.22879028,0.289550780000127
-84.98207855,-121.21772766,0.289672850000215
-84.95355225,-121.2105484,0.289672850000215
-84.96160889,-121.23207855,0.289672850000215
-84.95326233,-121.21153259,0.289917000000059
-84.9662323,-121.22846985,0.289917000000059
-84.95046997,-121.19716644,0.290161140000009
-84.95419312,-121.20578766,0.290283210000098
-84.97927094,-121.24288177,0.290527350000048
-84.95063782,-121.21492767,0.290527350000048
-84.97131348,-121.20982361,0.291015630000174
-84.95462036,-121.19976807,0.291015630000174
-84.95542145,-121.22181702,0.291015630000174
-84.98236084,-121.21643066,0.291137700000036
-84.95127106,-121.20291901,0.291137700000036
-84.95410156,-121.20826721,0.291137700000036
-84.95197296,-121.20442963,0.291381840000213
-84.9647522,-121.22737122,0.291381840000213
-84.9713974,-121.23808289,0.291748050000024
-84.95806885,-121.2168808,0.291870120000112
-84.95124054,-121.21916199,0.291870120000112
-84.98854065,-121.24964905,0.291870120000112
-84.98706055,-121.24884033,0.291992190000201
-84.97648621,-121.21170807,0.292236330000151
-84.97753143,-121.24176788,0.292236330000151
-84.97940063,-121.2145462,0.292358400000012
-84.96523285,-121.23535919,0.292358400000012
-84.96051025,-121.21092987,0.2924804700001
-84.95094299,-121.20485687,0.29272461000005
-84.96080017,-121.23269653,0.29296875
-84.99272919,-121.21996307,0.293090820000089
-84.98705292,-121.24880219,0.293212890000177
-84.97499084,-121.23490143,0.293212890000177
-84.95317841,-121.20516205,0.293212890000177
-84.97477722,-121.24138641,0.293334960000038
-84.96491241,-121.20578766,0.293334960000038
-84.95359039,-121.20793152,0.293334960000038
-84.97104645,-121.20948029,0.293579100000215
-84.97232056,-121.23204041,0.293823250000059
-84.95880127,-121.23259735,0.293945320000148
-84.96594238,-121.23583221,0.294067390000009
-84.95275879,-121.20236969,0.294189460000098
-84.95227814,-121.21710968,0.294311530000186
-84.9587326,-121.21105957,0.294433600000048
-84.96095276,-121.23539734,0.294555670000136
-84.97598267,-121.21135712,0.294677740000225
-84.99263,-121.22241211,0.294677740000225
-84.95246887,-121.20333862,0.294677740000225
-84.95697021,-121.21124268,0.294677740000225
-84.96028137,-121.22486115,0.294677740000225
-84.96147919,-121.21890259,0.294799810000086
-84.98207855,-121.21604919,0.294921880000174
-84.95503235,-121.20140839,0.294921880000174
-84.96105957,-121.21611786,0.294921880000174
-84.97989655,-121.21372986,0.295043950000036
-84.99680328,-121.22502899,0.295043950000036
-84.95052338,-121.21240234,0.295166020000124
-84.96716309,-121.22882843,0.295166020000124
-84.95922852,-121.23432159,0.295288090000213
-84.95214844,-121.22083282,0.295288090000213
-84.9592514,-121.20227814,0.295410160000074
-84.9641571,-121.21295929,0.295410160000074
-84.99755859,-121.22428894,0.295532230000163
-84.95384979,-121.20661163,0.295532230000163
-84.95265961,-121.2048111,0.295654300000024
-84.95066833,-121.22001648,0.295654300000024
-84.95214844,-121.22856903,0.295776370000112
-84.98007202,-121.23922729,0.295898440000201
-84.95243073,-121.21981049,0.295898440000201
-84.9640274,-121.21669006,0.296020510000062
-84.95420837,-121.20310211,0.296142580000151
-84.95954895,-121.23179626,0.296142580000151
-84.9784317,-121.2436676,0.296264650000012
-84.97396088,-121.21124268,0.2963867200001
-84.95549011,-121.21790314,0.2963867200001
-84.95033264,-121.21472168,0.296508790000189
-84.97956085,-121.23918152,0.296875
-84.97707367,-121.2388382,0.297119140000177
-84.97077179,-121.20909882,0.297241210000038
-84.95310974,-121.21379089,0.297241210000038
-84.98993683,-121.21972656,0.297363280000127
-84.97473907,-121.23349762,0.297363280000127
-84.95612335,-121.20561981,0.297485350000215
-84.9695816,-121.22255707,0.297973640000009
-84.96605682,-121.22293854,0.297973640000009
-84.96089935,-121.21225739,0.298095710000098
-84.96560669,-121.22917938,0.298095710000098
-84.97673035,-121.24130249,0.298217780000186
-84.96233368,-121.21430206,0.298339850000048
-84.98130798,-121.23867798,0.298583990000225
-84.96463013,-121.2283783,0.298583990000225
-84.97628021,-121.23950958,0.298828130000174
-84.96846008,-121.21798706,0.298828130000174
-84.95043182,-121.21865082,0.298950200000036
-84.97921753,-121.24134827,0.299194340000213
-84.9715271,-121.23934174,0.299316410000074
-84.98272705,-121.24095154,0.299438480000163
-84.97197723,-121.23284149,0.299560550000024
-84.98081207,-121.2383728,0.299804690000201
-84.96880341,-121.2069397,0.300170900000012
-84.96450806,-121.20805359,0.300170900000012
-84.95700073,-121.22383118,0.300170900000012
-84.97596741,-121.24069977,0.300415040000189
-84.97183228,-121.22128296,0.300903320000089
-84.98622894,-121.24826813,0.301025390000177
-84.98937988,-121.24362183,0.301147460000038
-84.98339844,-121.24266815,0.301269530000127
-84.98062134,-121.24358368,0.301269530000127
-84.9655304,-121.22255707,0.301391600000215
-84.974823,-121.24513245,0.301513670000077
-84.96920776,-121.22492218,0.301757820000148
-84.97589874,-121.21112061,0.301879890000009
-84.97444153,-121.24111176,0.301879890000009
-84.95922852,-121.21607971,0.302124030000186
-84.97991943,-121.24176788,0.302246100000048
-84.97003174,-121.23819733,0.302246100000048
-84.95054626,-121.22129059,0.302490240000225
-84.97094727,-121.20919037,0.302612310000086
-84.965271,-121.23027039,0.302734380000174
-84.95799255,-121.21550751,0.302856450000036
-84.95157623,-121.2203064,0.302978520000124
-84.95542145,-121.23320007,0.302978520000124
-84.99532318,-121.22147369,0.303222660000074
-84.97353363,-121.22225952,0.303222660000074
-84.97692108,-121.22561646,0.303344730000163
-84.96604919,-121.23703003,0.303466800000024
-84.96134949,-121.23536682,0.303588870000112
-84.99256897,-121.22110748,0.303710940000201
-84.99011993,-121.21952057,0.304077150000012
-84.96868896,-121.22457886,0.304077150000012
-84.97364044,-121.23400116,0.3041992200001
-84.95617676,-121.22467041,0.3041992200001
-84.9770813,-121.22808838,0.30444336000005
-84.9732666,-121.22221375,0.30444336000005
-84.97776794,-121.2298584,0.304565430000139
-84.98348236,-121.2155304,0.3046875
-84.97738647,-121.24160004,0.304931640000177
-84.96549225,-121.23017883,0.305664070000148
-84.97830963,-121.21257019,0.306030280000186
-84.98911285,-121.21891785,0.306030280000186
-84.97749329,-121.21452332,0.306518560000086
-84.97721863,-121.22302246,0.306518560000086
-84.96450043,-121.23737335,0.306640630000174
-84.99324799,-121.24581146,0.306762700000036
-84.98399353,-121.21446991,0.306884770000124
-84.98143005,-121.23992157,0.306884770000124
-84.97161102,-121.23409271,0.306884770000124
-84.99102783,-121.24446869,0.307128910000074
-84.97798157,-121.22226715,0.307250980000163
-84.98828888,-121.244133,0.307373050000024
-84.98300934,-121.22917938,0.307617190000201
-84.98571014,-121.24653625,0.307739260000062
-84.96705627,-121.21965027,0.307861330000151
-84.98152924,-121.22836304,0.30834961000005
-84.98957825,-121.23461151,0.308837890000177
-84.98091888,-121.23957825,0.308959960000038
-84.97910309,-121.21800232,0.308959960000038
-84.97709656,-121.21819305,0.308959960000038
-84.98296356,-121.2303772,0.309326170000077
-84.98618317,-121.2157135,0.309448250000059
-84.98487091,-121.23294067,0.309448250000059
-84.98245239,-121.23007965,0.310302740000225
-84.97750854,-121.243927,0.310302740000225
-84.99223328,-121.2371521,0.310424810000086
-84.99500275,-121.22096252,0.310668950000036
-84.98564148,-121.24768066,0.310913090000213
-84.98980713,-121.23455048,0.311035160000074
-84.99250793,-121.23612976,0.311157230000163
-84.98599243,-121.22090149,0.311401370000112
-84.96681976,-121.2335434,0.311523440000201
-84.98970795,-121.24503326,0.311889650000012
-84.98390961,-121.23081207,0.312377930000139
-84.99056244,-121.24954224,0.312377930000139
-84.98973846,-121.22046661,0.312866210000038
-84.99706268,-121.24948883,0.312866210000038
-84.98975372,-121.23573303,0.313110350000215
-84.98847198,-121.22091675,0.313110350000215
-84.97792053,-121.23784637,0.313110350000215
-84.98932648,-121.2329483,0.313476570000148
-84.97910309,-121.23986816,0.313598640000009
-84.97419739,-121.23670197,0.313964850000048
-84.99059296,-121.23246765,0.314086920000136
-84.97753906,-121.22579193,0.314208990000225
-84.98964691,-121.24619293,0.314453130000174
-84.98938751,-121.24590302,0.315429690000201
-84.98635101,-121.23126984,0.3159179700001
-84.98348236,-121.24240875,0.317016600000215
-84.99868774,-121.23586273,0.317993170000136
-84.99369812,-121.23544312,0.318115240000225
-84.99224091,-121.24881744,0.320800780000127
-84.99002838,-121.2474823,0.321289070000148
