"X","Y","Z"
-85.11625671,-121.30271912,0.350219729999935
-85.13009644,-121.31159973,0.350219729999935
-85.10370636,-121.30892944,0.350219729999935
-85.10775757,-121.30196381,0.350219729999935
-85.10923767,-121.30560303,0.350341800000024
-85.10175323,-121.29804993,0.350585939999974
-85.10262299,-121.31336212,0.350708010000062
-85.10063934,-121.3194809,0.350708010000062
-85.10883331,-121.30783844,0.350830080000151
-85.11933136,-121.30895233,0.350952150000012
-85.09674072,-121.31390381,0.350952150000012
-85.12830353,-121.30912018,0.3510742200001
-85.10021973,-121.31217957,0.3510742200001
-85.09648132,-121.3151474,0.35131836000005
-85.11238861,-121.3106308,0.351440430000139
-85.10753632,-121.30848694,0.351440430000139
-85.10352325,-121.30541992,0.3515625
-85.10157013,-121.31755829,0.351684570000089
-85.11373138,-121.30973816,0.351928710000038
-85.09210205,-121.32008362,0.351928710000038
-85.08413696,-121.31919861,0.351928710000038
-85.10312653,-121.30740356,0.352050780000127
-85.10160065,-121.30779266,0.352294920000077
-85.1078186,-121.30029297,0.352539060000026
-85.10176849,-121.31207275,0.352539060000026
-85.09912109,-121.31713104,0.352539060000026
-85.1018219,-121.31482697,0.352661130000115
-85.10787964,-121.29577637,0.352905270000065
-85.10469818,-121.3037262,0.353027339999926
-85.11952972,-121.30754089,0.353149410000015
-85.10195923,-121.30531311,0.353149410000015
-85.07032013,-121.2631073,0.353149410000015
-85.11157227,-121.30908966,0.353271480000103
-85.10404968,-121.31226349,0.353393549999964
-85.09348297,-121.32221222,0.353393549999964
-85.08904266,-121.3181076,0.353515620000053
-85.10626221,-121.30216217,0.353515620000053
-85.10079193,-121.30094147,0.353637690000141
-85.0837326,-121.31868744,0.353637690000141
-85.12532806,-121.30349731,0.353881839999985
-85.11714935,-121.2985611,0.353881839999985
-85.10250854,-121.30638123,0.353881839999985
-85.10162354,-121.31459045,0.354003910000074
-85.09567261,-121.32013702,0.354003910000074
-85.09877014,-121.31260681,0.354125979999935
-85.10385132,-121.30844116,0.354370120000112
-85.12725067,-121.31278992,0.354492189999974
-85.08444977,-121.31625366,0.354492189999974
-85.10054779,-121.31577301,0.354736330000151
-85.09748077,-121.3197937,0.354736330000151
-85.10221863,-121.3041687,0.354858400000012
-85.1054306,-121.30120087,0.3549804700001
-85.07866669,-121.31330109,0.3549804700001
-85.0772171,-121.26576996,0.355102539999962
-85.10930634,-121.30268097,0.355346680000139
-85.08798981,-121.31629181,0.355346680000139
-85.11209106,-121.30133057,0.355590820000089
-85.05264282,-121.32852936,0.355590820000089
-85.09549713,-121.31990051,0.355834960000038
-85.11876678,-121.31015015,0.356079099999988
-85.0822525,-121.31610107,0.356079099999988
-85.07981873,-121.31516266,0.356079099999988
-85.10051727,-121.3021698,0.356201170000077
-85.07396698,-121.26512909,0.356201170000077
-85.10636139,-121.30621338,0.356201170000077
-85.12924957,-121.31510925,0.356323239999938
-85.10314941,-121.30008698,0.356445310000026
-85.10617828,-121.30609894,0.356445310000026
-85.11785126,-121.30571747,0.356567380000115
-85.09796143,-121.31759644,0.356567380000115
-85.08296204,-121.31365967,0.356567380000115
-85.10607147,-121.29818726,0.356689449999976
-85.10970306,-121.30873871,0.356811520000065
-85.09973145,-121.31423187,0.356811520000065
-85.10259247,-121.31620789,0.356933589999926
-85.08293152,-121.31742096,0.356933589999926
-85.10439301,-121.30934143,0.357177730000103
-85.1033783,-121.30870819,0.357421870000053
-85.09400177,-121.31729889,0.357666010000003
-85.09929657,-121.31697083,0.357788089999985
-85.09207153,-121.31967163,0.358154300000024
-85.05769348,-121.32702637,0.358154300000024
-85.10868073,-121.30439758,0.358398439999974
-85.06497192,-121.32238007,0.358398439999974
-85.10835266,-121.30555725,0.358642580000151
-85.08920288,-121.31819153,0.358764650000012
-85.10575104,-121.29918671,0.3588867200001
-85.10884094,-121.30444336,0.3588867200001
-85.10797882,-121.30587769,0.3588867200001
-85.11472321,-121.29936981,0.35913086000005
-85.10733795,-121.29573059,0.35913086000005
-85.10591125,-121.30732727,0.359252930000139
-85.08547211,-121.31465149,0.359252930000139
-85.11084747,-121.30461121,0.359375
-85.12731934,-121.31207275,0.359497070000089
-85.08370209,-121.31501007,0.359497070000089
-85.09958649,-121.31075287,0.35961913999995
-85.08859253,-121.3199234,0.359741210000038
-85.10186005,-121.2908783,0.359741210000038
-85.1177597,-121.31404114,0.359863280000127
-85.09760284,-121.31385803,0.359863280000127
-85.10375977,-121.31535339,0.360107420000077
-85.0905838,-121.32032776,0.360229489999938
-85.08261871,-121.31945038,0.360229489999938
-85.09916687,-121.31324005,0.360595699999976
-85.10825348,-121.29248047,0.360595699999976
-85.1028595,-121.30872345,0.360595699999976
-85.11708832,-121.29855347,0.360839839999926
-85.08508301,-121.3171463,0.360961910000015
-85.11855316,-121.31050873,0.361083980000103
-85.10581207,-121.29921722,0.361083980000103
-85.12856293,-121.31685638,0.361206049999964
-85.09764099,-121.31713867,0.361328120000053
-85.09896851,-121.3162384,0.361572260000003
-85.11914825,-121.29988098,0.361694339999985
-85.10556793,-121.29963684,0.361694339999985
-85.10428619,-121.29960632,0.361694339999985
-85.11061859,-121.3067627,0.361816410000074
-85.10296631,-121.31004333,0.361816410000074
-85.11959076,-121.30693817,0.361938479999935
-85.09242249,-121.31999969,0.361938479999935
-85.09899139,-121.31298828,0.362060550000024
-85.10363007,-121.29769897,0.362548830000151
-85.10076904,-121.3128891,0.362548830000151
-85.09900665,-121.31626892,0.3627929700001
-85.09942627,-121.30397034,0.3627929700001
-85.10588074,-121.31179047,0.362915039999962
-85.10489655,-121.29914093,0.362915039999962
-85.10865021,-121.30709839,0.362915039999962
-85.11763,-121.29631042,0.36303711000005
-85.09178162,-121.32221985,0.363159180000139
-85.12101746,-121.31015778,0.36328125
-85.11299133,-121.30594635,0.36328125
-85.05256653,-121.32556152,0.363647460000038
-85.10549927,-121.30799866,0.363769530000127
-85.10059357,-121.31565094,0.363769530000127
-85.10856628,-121.30674744,0.363891599999988
-85.08538055,-121.31771851,0.363891599999988
-85.11412811,-121.3015976,0.364135739999938
-85.09951019,-121.31056213,0.364624020000065
-85.09799194,-121.3172226,0.364746089999926
-85.10471344,-121.30300903,0.364868160000015
-85.10771179,-121.30844879,0.364868160000015
-85.1052475,-121.29823303,0.364868160000015
-85.09404755,-121.32267761,0.364868160000015
-85.10597229,-121.31398773,0.364990230000103
-85.10462189,-121.30947113,0.364990230000103
-85.12597656,-121.3082962,0.365112299999964
-85.10591888,-121.30474854,0.365112299999964
-85.10305023,-121.31360626,0.365234370000053
-85.08982849,-121.3190918,0.365234370000053
-85.10263062,-121.30957031,0.365478510000003
-85.0856781,-121.31777191,0.365600589999985
-85.10926819,-121.30483246,0.365722660000074
-85.10173798,-121.31452179,0.365722660000074
-85.09510803,-121.28333282,0.365722660000074
-85.10281372,-121.3000412,0.365966800000024
-85.12058258,-121.31065369,0.366333010000062
-85.09780884,-121.31697845,0.366577150000012
-85.10488129,-121.31005096,0.366821289999962
-85.1031189,-121.31665039,0.36694336000005
-85.08368683,-121.31813812,0.3671875
-85.09499359,-121.32128143,0.367309570000089
-85.09503174,-121.31050873,0.367797849999988
-85.11003876,-121.30242157,0.368164060000026
-85.06414795,-121.32230377,0.368164060000026
-85.11022186,-121.3066864,0.368408199999976
-85.09191132,-121.31302643,0.368530270000065
-85.11621094,-121.3007431,0.368652339999926
-85.12506866,-121.31141663,0.368652339999926
-85.08441925,-121.32222748,0.368652339999926
-85.10578918,-121.29859161,0.368652339999926
-85.0791626,-121.31825256,0.368652339999926
-85.10250854,-121.30911255,0.368774410000015
-85.10160828,-121.31104279,0.368774410000015
-85.09520721,-121.31906891,0.368896480000103
-85.10140228,-121.31378937,0.369018549999964
-85.09963226,-121.30657959,0.369018549999964
-85.10829926,-121.30905914,0.369140620000053
-85.09349823,-121.31867981,0.369140620000053
-85.10517883,-121.30912781,0.369262690000141
-85.08154297,-121.31449127,0.369384760000003
-85.11522675,-121.29605103,0.369506839999985
-85.0983429,-121.31781769,0.369506839999985
-85.09329987,-121.32142639,0.369628910000074
-85.11161041,-121.31183624,0.369750979999935
-85.08866882,-121.31981659,0.369995120000112
-85.10420227,-121.30445099,0.370117189999974
-85.08291626,-121.31310272,0.370117189999974
-85.10579681,-121.31459045,0.370239260000062
-85.10521698,-121.31034088,0.370239260000062
-85.10233307,-121.31537628,0.370483400000012
-85.1016922,-121.30756378,0.3706054700001
-85.11631012,-121.30010986,0.37109375
-85.09707642,-121.31848907,0.37109375
-85.09221649,-121.31661224,0.371215820000089
-85.1054306,-121.30796814,0.371459960000038
-85.10675049,-121.29833984,0.371704099999988
-85.10455322,-121.30251312,0.372070310000026
-85.08630371,-121.31890869,0.372070310000026
-85.10484314,-121.30658722,0.372802730000103
-85.12763214,-121.30918884,0.372924799999964
-85.08841705,-121.30931091,0.373291010000003
-85.06941986,-121.32068634,0.373413089999985
-85.1026535,-121.31571198,0.373657229999935
-85.10913849,-121.2947998,0.373657229999935
-85.12368774,-121.31607819,0.374267580000151
-85.10356903,-121.32029724,0.374389650000012
-85.06591797,-121.31825256,0.37475586000005
-85.09233856,-121.31967926,0.374877930000139
-85.10314178,-121.31652069,0.375366210000038
-85.08995056,-121.3184967,0.375488280000127
-85.10455322,-121.29891205,0.375488280000127
-85.09613037,-121.30426788,0.375732420000077
-85.08795166,-121.30957031,0.376586910000015
-85.05654144,-121.32398224,0.377807620000112
-85.10189819,-121.3114624,0.379028320000089
-85.05815125,-121.32034302,0.379516599999988
-85.08354187,-121.31056213,0.379760739999938
-85.05145264,-121.32816315,0.380371089999926
-85.06246185,-121.31899261,0.381469729999935
