"X","Y","Z"
-85.03932953,-121.34890747,0.150024410000015
-85.03574371,-121.34455109,0.150268549999964
-85.03594971,-121.34832764,0.150512690000141
-85.03340912,-121.32418823,0.150634760000003
-85.02912903,-121.32852936,0.150634760000003
-85.03704834,-121.34391022,0.150756839999985
-85.03147125,-121.34259796,0.150756839999985
-85.00598145,-121.28163147,0.151000979999935
-85.02205658,-121.34649658,0.151123050000024
-85.00985718,-121.3246994,0.151123050000024
-85.00830841,-121.33013153,0.1518554700001
-85.04734802,-121.33592987,0.151977539999962
-85.03806305,-121.30290985,0.151977539999962
-85.04728699,-121.34497833,0.151977539999962
-85.04355621,-121.34104919,0.15209961000005
-85.01161957,-121.28502655,0.15209961000005
-85.00125885,-121.33711243,0.152465820000089
-85.02333832,-121.29366302,0.15258788999995
-85.0162735,-121.28791046,0.152832030000127
-85.02012634,-121.34310913,0.153076170000077
-85.03604126,-121.32058716,0.153076170000077
-85.04811096,-121.30895233,0.153320310000026
-85.00746918,-121.28109741,0.153442380000115
-85.0411377,-121.33718872,0.153442380000115
-85.02477264,-121.32978058,0.153686520000065
-85.03508759,-121.34159851,0.153686520000065
-85.04638672,-121.30787659,0.153808589999926
-85.04985809,-121.33455658,0.153930660000015
-85.01040649,-121.33007813,0.154541010000003
-85.01309967,-121.28450012,0.154663089999985
-85.00216675,-121.31990814,0.154785160000074
-85.04737854,-121.34828949,0.154907229999935
-85.03655243,-121.34568787,0.155029300000024
-85.04508209,-121.33499146,0.155395510000062
-85.04606628,-121.34919739,0.155395510000062
-85.00538635,-121.34649658,0.155395510000062
-85.00537109,-121.3434906,0.155517580000151
-85.01786041,-121.32820892,0.155517580000151
-85.02726746,-121.2949295,0.155639650000012
-85.04138947,-121.34059143,0.1557617200001
-85.00360107,-121.27615356,0.1557617200001
-85.02239227,-121.34407806,0.1557617200001
-85.03125,-121.32775879,0.156127930000139
-85.0089035,-121.32447052,0.15649413999995
-85.04812622,-121.34587097,0.156860349999988
-85.03411865,-121.29911041,0.157104489999938
-85.04144287,-121.34810638,0.157104489999938
-85.04746246,-121.34181213,0.157226560000026
-85.03814697,-121.34533691,0.157226560000026
-85.04470825,-121.33574677,0.157348630000115
-85.02313232,-121.29074097,0.157470699999976
-85.02313232,-121.3449173,0.157470699999976
-85.00453186,-121.34220123,0.157470699999976
-85.03479767,-121.33876801,0.157470699999976
-85.04068756,-121.3252182,0.157714839999926
-85.00701141,-121.27818298,0.158081049999964
-85.01677704,-121.28549957,0.158203120000053
-85.04192352,-121.34892273,0.158569339999985
-85.00682068,-121.34867096,0.158569339999985
-85.02111053,-121.34864044,0.158569339999985
-85.01516724,-121.32608795,0.158691410000074
-85.01541901,-121.32884216,0.158813479999935
-85.00562286,-121.31923676,0.158935550000024
-85.03366089,-121.29727936,0.159057620000112
-85.01612854,-121.34648895,0.159179689999974
-85.00380707,-121.27629089,0.159301760000062
-85.01393127,-121.32350159,0.159423830000151
-85.04176331,-121.33882904,0.1596679700001
-85.04575348,-121.32373047,0.1596679700001
-85.00229645,-121.27646637,0.159790039999962
-85.01719666,-121.33521271,0.160034180000139
-85.03414154,-121.29750824,0.160278320000089
-85.01802063,-121.28523254,0.160278320000089
-85.04428864,-121.33750916,0.16040038999995
-85.00592804,-121.28006744,0.16040038999995
-85.04199982,-121.34870911,0.160522460000038
-85.02729797,-121.29200745,0.161010739999938
-85.04360199,-121.34783936,0.161254880000115
-85.01538849,-121.32598877,0.161254880000115
-85.00102234,-121.31163788,0.161376949999976
-85.02413177,-121.34165955,0.161376949999976
-85.01143646,-121.27947235,0.161499020000065
-85.0151062,-121.28182983,0.161621089999926
-85.01467896,-121.34696198,0.161621089999926
-85.00006866,-121.27509308,0.161743160000015
-85.02282715,-121.34095001,0.161743160000015
-85.04843903,-121.3407135,0.161987299999964
-85.0478363,-121.34516907,0.161987299999964
-85.02310944,-121.32099152,0.161987299999964
-85.03401184,-121.32354736,0.162109370000053
-85.04628754,-121.33953857,0.162353510000003
-85.04205322,-121.34873962,0.162353510000003
-85.02636719,-121.34398651,0.162353510000003
-85.04180145,-121.33685303,0.162719729999935
-85.04579926,-121.34118652,0.162841800000024
-85.00617981,-121.33119965,0.162963870000112
-85.01763916,-121.31890869,0.163330080000151
-85.04329681,-121.32434845,0.163452150000012
-85.02368164,-121.28704834,0.1635742200001
-85.03787994,-121.3449173,0.163696289999962
-85.04588318,-121.3390274,0.1640625
-85.04100037,-121.3469162,0.1640625
-85.04405212,-121.32978821,0.16430663999995
-85.01226044,-121.2838974,0.164428710000038
-85.0422287,-121.30113983,0.164550780000127
-85.00084686,-121.27301025,0.164672849999988
-85.03025055,-121.33078766,0.164672849999988
-85.02259827,-121.32102203,0.164672849999988
-85.00698853,-121.34577179,0.164916989999938
-85.03086853,-121.32176971,0.165039060000026
-85.0167923,-121.28276825,0.165161130000115
-85.02021027,-121.33402252,0.165161130000115
-85.00762939,-121.32808685,0.165161130000115
-85.04129791,-121.34790802,0.165283199999976
-85.04991913,-121.33283234,0.165405270000065
-85.04514313,-121.34301758,0.165405270000065
-85.04945374,-121.34208679,0.165405270000065
-85.02703094,-121.31611633,0.165405270000065
-85.04760742,-121.30452728,0.165649410000015
-85.03488922,-121.29534149,0.166015620000053
-85.01722717,-121.28450775,0.166137690000141
-85.01547241,-121.28443909,0.166381839999985
-85.04309845,-121.34661865,0.166503910000074
-85.03707123,-121.34037781,0.166625979999935
-85.00295258,-121.30835724,0.166625979999935
-85.04464722,-121.32070923,0.166870120000112
-85.01873016,-121.2840271,0.166992189999974
-85.03688812,-121.34288025,0.167114260000062
-85.03029633,-121.28990173,0.167236330000151
-85.0214386,-121.31481171,0.167236330000151
-85.04685974,-121.30393982,0.167358400000012
-85.04234314,-121.33027649,0.167358400000012
-85.04271698,-121.3003006,0.1674804700001
-85.0358963,-121.29457855,0.1674804700001
-85.03134155,-121.32163239,0.1674804700001
-85.01656342,-121.34622192,0.1674804700001
-85.01403046,-121.28234863,0.167602539999962
-85.0177002,-121.28472137,0.16772461000005
-85.00359344,-121.27223206,0.168457030000127
-85.04470825,-121.34477234,0.168701170000077
-85.02168274,-121.31752777,0.168823239999938
-85.03125763,-121.29036713,0.169067380000115
-85.03694916,-121.3429184,0.169067380000115
-85.04801178,-121.33625793,0.169067380000115
-85.02308655,-121.34446716,0.169189449999976
-85.01016235,-121.27742004,0.169433589999926
-85.01088715,-121.34588623,0.169555660000015
-85.0269928,-121.31323242,0.169555660000015
-85.01759338,-121.33123016,0.169799799999964
-85.03565216,-121.34382629,0.170043940000141
-85.04927063,-121.33480835,0.170410160000074
-85.04624176,-121.33689117,0.170410160000074
-85.0385437,-121.34557343,0.170410160000074
-85.03865051,-121.31308746,0.170410160000074
-85.04292297,-121.33899689,0.170532229999935
-85.01844788,-121.28365326,0.170654300000024
-85.02433777,-121.28733826,0.170654300000024
-85.00720215,-121.33692932,0.170898439999974
-85.02236938,-121.28626251,0.171020510000062
-85.03369141,-121.29189301,0.171142580000151
-85.03733063,-121.32247162,0.1713867200001
-85.02220917,-121.33287048,0.17163086000005
-85.04496765,-121.29898834,0.171752930000139
-85.04808044,-121.33956909,0.171752930000139
-85.0464325,-121.32637024,0.171997070000089
-85.03294373,-121.2915802,0.17211913999995
-85.04966736,-121.31636047,0.17211913999995
-85.02911377,-121.33998108,0.172363280000127
-85.03025818,-121.31865692,0.172485349999988
-85.03617096,-121.29216766,0.172607420000077
-85.01776886,-121.28079987,0.172851560000026
-85.03269196,-121.29129028,0.173095699999976
-85.02311707,-121.28546906,0.173339839999926
-85.00995636,-121.27452087,0.173583980000103
-85.04992676,-121.33924103,0.173706049999964
-85.00028992,-121.29496765,0.173828120000053
-85.01126099,-121.33280182,0.174072260000003
-85.04991913,-121.33152008,0.174194339999985
-85.01384735,-121.31655121,0.174560550000024
-85.03884888,-121.29367828,0.174926760000062
-85.00727081,-121.33992004,0.1752929700001
-85.04550934,-121.33541107,0.175415039999962
-85.0324173,-121.29094696,0.17553711000005
-85.04911804,-121.33744812,0.17553711000005
-85.02955627,-121.32456207,0.17553711000005
-85.00106049,-121.29393768,0.175659180000139
-85.00968933,-121.27419281,0.17578125
-85.01287842,-121.27629089,0.175903320000089
-85.01561737,-121.33170319,0.175903320000089
-85.01062775,-121.34545898,0.17602538999995
-85.03735352,-121.34053802,0.176147460000038
-85.04888916,-121.29997253,0.176269530000127
-85.03781128,-121.29434967,0.176269530000127
-85.02950287,-121.28807068,0.176391599999988
-85.04863739,-121.31365204,0.176513670000077
-85.02628326,-121.34676361,0.176513670000077
-85.00800323,-121.27210236,0.176757810000026
-85.01000977,-121.34718323,0.176757810000026
-85.02110291,-121.34210968,0.176879880000115
-85.00852203,-121.27110291,0.177124020000065
-85.03539276,-121.29148865,0.177368160000015
-85.04737091,-121.33483124,0.177368160000015
-85.02940369,-121.32785797,0.177368160000015
-85.0138092,-121.34674835,0.177368160000015
-85.01290131,-121.27497864,0.177612299999964
-85.02732849,-121.28520966,0.177612299999964
-85.02388763,-121.28308868,0.177734370000053
-85.04347992,-121.29649353,0.177856440000141
-85.00614166,-121.29853058,0.177856440000141
-85.0333786,-121.32330322,0.177856440000141
-85.03394318,-121.28942108,0.177978510000003
-85.03148651,-121.28782654,0.178222660000074
-85.00733185,-121.26876831,0.178344729999935
-85.0042572,-121.29444885,0.178344729999935
-85.00610352,-121.29950714,0.178588870000112
-85.00079346,-121.26229858,0.178588870000112
-85.00592804,-121.29698944,0.178710939999974
-85.0029068,-121.2976532,0.178710939999974
-85.03009796,-121.3454895,0.178833010000062
-85.04628754,-121.33651733,0.178955080000151
-85.04187775,-121.31839752,0.179077150000012
-85.00327301,-121.29389191,0.179321289999962
-85.03096771,-121.33641815,0.179321289999962
-85.00734711,-121.29927063,0.179565430000139
-85.04306793,-121.32070923,0.179565430000139
-85.04620361,-121.31427002,0.17993163999995
-85.01985168,-121.34506989,0.17993163999995
-85.04678345,-121.33708191,0.180175780000127
-85.00293732,-121.32987213,0.180297849999988
-85.01835632,-121.3425293,0.180419920000077
-85.00808716,-121.26796722,0.180541989999938
-85.04901886,-121.33750916,0.180541989999938
-85.002388,-121.2973175,0.180786130000115
-85.04415131,-121.33563232,0.180786130000115
-85.00830078,-121.33857727,0.180786130000115
-85.04618073,-121.29669952,0.181640620000053
-85.04550171,-121.31741333,0.181762690000141
-85.00572968,-121.29412842,0.181884760000003
-85.02658844,-121.28328705,0.182006839999985
-85.00836182,-121.33509064,0.182006839999985
-85.0450592,-121.33422089,0.182250979999935
-85.01567078,-121.2726593,0.182495120000112
-85.04736328,-121.31374359,0.182495120000112
-85.03173828,-121.28643799,0.182617189999974
-85.00863647,-121.26540375,0.183227539999962
-85.01348114,-121.3015976,0.183227539999962
-85.02586365,-121.33778381,0.18334961000005
-85.0166626,-121.34303284,0.18359375
-85.04621887,-121.33608246,0.183715820000089
-85.01490784,-121.30387878,0.18383788999995
-85.04911804,-121.33757019,0.18383788999995
-85.00550842,-121.33062744,0.183959960000038
-85.03070831,-121.31169128,0.184326170000077
-85.04250336,-121.29322815,0.184448239999938
-85.00430298,-121.34909821,0.184448239999938
-85.01318359,-121.30280304,0.184570310000026
-85.01087952,-121.34561157,0.184570310000026
-85.02610779,-121.34329224,0.184692380000115
-85.04667664,-121.29560852,0.184936520000065
-85.04627991,-121.32862854,0.185058589999926
-85.01132965,-121.2977066,0.185302730000103
-85.00205231,-121.29064178,0.185546870000053
-85.02924347,-121.33685303,0.185546870000053
-85.00940704,-121.26358032,0.186157229999935
-85.02146912,-121.34156799,0.186157229999935
-85.01766205,-121.30287933,0.186279300000024
-85.00508118,-121.29747009,0.186279300000024
-85.00672913,-121.34153748,0.186279300000024
-85.04141235,-121.33123016,0.186401370000112
-85.04395294,-121.29421997,0.186523439999974
-85.03029633,-121.28301239,0.186523439999974
-85.01487732,-121.30378723,0.186523439999974
-85.00887299,-121.29608154,0.186767580000151
-85.00469208,-121.33261108,0.186767580000151
-85.00943756,-121.34577942,0.187133789999962
-85.01413727,-121.30323792,0.18725586000005
-85.00376129,-121.26010132,0.1875
-85.02510071,-121.34340668,0.1875
-85.0177002,-121.26979828,0.18774413999995
-85.00604248,-121.29820251,0.18774413999995
-85.02416992,-121.31356812,0.187988280000127
-85.00984192,-121.29656219,0.188232420000077
-85.0438385,-121.32926178,0.188354489999938
-85.02102661,-121.30618286,0.188476560000026
-85.02397156,-121.30827332,0.188598630000115
-85.01985168,-121.30413055,0.188598630000115
-85.04904938,-121.33712769,0.188598630000115
-85.02050018,-121.34194183,0.188842770000065
-85.0412674,-121.29103851,0.189208980000103
-85.01790619,-121.30178833,0.189575190000141
-85.02163696,-121.27111053,0.189819339999985
-85.01030731,-121.29678345,0.189819339999985
-85.01779175,-121.3055191,0.189941410000074
-85.00029755,-121.25791168,0.189941410000074
-85.00479126,-121.29734039,0.190063479999935
-85.02024078,-121.3391571,0.190063479999935
-85.0459671,-121.31050873,0.190185550000024
-85.02242279,-121.34410095,0.190185550000024
-85.00894928,-121.29997253,0.190429689999974
-85.04888153,-121.3221817,0.190429689999974
-85.00404358,-121.29679108,0.1909179700001
-85.04514313,-121.31980133,0.191040039999962
-85.04908752,-121.29598236,0.19116211000005
-85.0091095,-121.26341248,0.19116211000005
-85.04473114,-121.29158783,0.191284180000139
-85.02442932,-121.30844116,0.191284180000139
-85.01584625,-121.30290222,0.191528320000089
-85.03160858,-121.2793808,0.19165038999995
-85.01429749,-121.26506042,0.191772460000038
-85.01828003,-121.31481934,0.191772460000038
-85.03016663,-121.27732849,0.191894530000127
-85.005867,-121.29405975,0.191894530000127
-85.02320099,-121.30763245,0.192016599999988
-85.04470825,-121.33634186,0.192260739999938
-85.04180908,-121.28869629,0.192382810000026
-85.00959015,-121.26363373,0.192504880000115
-85.04934692,-121.30957794,0.192626949999976
-85.02165222,-121.33859253,0.192626949999976
-85.04695892,-121.29160309,0.192993160000015
-85.03964233,-121.28585815,0.192993160000015
-85.01289368,-121.30101013,0.192993160000015
-85.02764893,-121.30873108,0.193359370000053
-85.04805756,-121.33888245,0.193359370000053
-85.02851105,-121.27371216,0.193725589999985
-85.00034332,-121.25527954,0.193847660000074
-85.04502869,-121.28926086,0.193969729999935
-85.00177002,-121.25731659,0.193969729999935
-85.02488708,-121.30861664,0.194091800000024
-85.03582001,-121.27967834,0.194458010000062
-85.01899719,-121.30491638,0.194458010000062
-85.00351715,-121.29640198,0.194458010000062
-85.0206604,-121.34152222,0.194580080000151
-85.04309845,-121.28639984,0.19506836000005
-85.01908112,-121.30239105,0.19506836000005
-85.0100174,-121.25704193,0.195434570000089
-85.04611206,-121.33573914,0.195434570000089
-85.02922821,-121.27417755,0.19555663999995
-85.02664185,-121.30812836,0.19555663999995
-85.03588867,-121.32215881,0.19555663999995
-85.00228119,-121.25627899,0.195678710000038
-85.0071106,-121.34806061,0.195678710000038
-85.001091,-121.29353333,0.195800780000127
-85.00702667,-121.25643158,0.195922849999988
-85.02622986,-121.32215118,0.196044920000077
-85.00704956,-121.29470825,0.196166989999938
-85.01187897,-121.34059143,0.196166989999938
-85.01328278,-121.26438141,0.196289060000026
-85.00575256,-121.29641724,0.196289060000026
-85.01318359,-121.29866028,0.196411130000115
-85.02922058,-121.27414703,0.196533199999976
-85.00975037,-121.25698853,0.196777339999926
-85.02940369,-121.33934784,0.196899410000015
-85.03349304,-121.31256104,0.197021480000103
-85.02150726,-121.3036499,0.197387690000141
-85.01268005,-121.29836273,0.197387690000141
-85.02092743,-121.30612946,0.197509760000003
-85.01455688,-121.30191803,0.197509760000003
-85.01261139,-121.26130676,0.197631839999985
-85.00776672,-121.29518127,0.197753910000074
-85.01088715,-121.26023865,0.197875979999935
-85.00634003,-121.2693634,0.197875979999935
-85.01236725,-121.34140015,0.197875979999935
-85.01306152,-121.26280975,0.197998050000024
-85.0125885,-121.30084229,0.197998050000024
-85.04221344,-121.28202057,0.198120120000112
-85.00257874,-121.29299927,0.198120120000112
-85.03492737,-121.32253265,0.198364260000062
-85.01315308,-121.34638214,0.198364260000062
-85.01995087,-121.30532074,0.198486330000151
-85.02072906,-121.34751892,0.198486330000151
-85.02332306,-121.3381424,0.198608400000012
-85.01013947,-121.2599411,0.198852539999962
-85.02895355,-121.27381134,0.19897461000005
-85.01777649,-121.26316833,0.19946288999995
-85.03244781,-121.31735992,0.199707030000127
-85.04460907,-121.3171463,0.199829099999988
-85.03492737,-121.31324768,0.200073239999938
-85.00839996,-121.29812622,0.200073239999938
-85.04782104,-121.33820343,0.200073239999938
-85.02893829,-121.34520721,0.200073239999938
-85.01914978,-121.3238678,0.200195310000026
-85.04464722,-121.30771637,0.200317380000115
-85.02648163,-121.27243042,0.200439449999976
-85.02377319,-121.34335327,0.200439449999976
-85.03369904,-121.31243896,0.200805660000015
-85.02306366,-121.34091949,0.201171870000053
-85.00108337,-121.25280762,0.201293940000141
-85.02687836,-121.26740265,0.201538089999985
-85.03221893,-121.31162262,0.201538089999985
-85.02552795,-121.2703476,0.201782229999935
-85.01725769,-121.30211639,0.201782229999935
-85.03025055,-121.31028748,0.201904300000024
-85.00982666,-121.34026337,0.201904300000024
-85.0150528,-121.30078888,0.202026370000112
-85.02681732,-121.3081665,0.202148439999974
-85.02896881,-121.34819794,0.202148439999974
-85.04930878,-121.28511047,0.202514650000012
-85.01599121,-121.26325989,0.202514650000012
-85.03529358,-121.2776413,0.2026367200001
-85.04924011,-121.34036255,0.202758789999962
-85.04367065,-121.28166199,0.20288086000005
-85.01970673,-121.26412201,0.20288086000005
-85.01254272,-121.30066681,0.203002930000139
-85.02928162,-121.26992798,0.203125
-85.04219055,-121.2806015,0.20336913999995
-85.02826691,-121.30917358,0.203613280000127
-85.03070068,-121.27220917,0.203735349999988
-85.02507782,-121.30706024,0.203735349999988
-85.01940155,-121.34458923,0.203735349999988
-85.04046631,-121.27953339,0.203857420000077
-85.00534821,-121.34284973,0.203979489999938
-85.04953766,-121.28531647,0.204101560000026
-85.01696014,-121.26373291,0.204223630000115
-85.03482056,-121.27606964,0.204345699999976
-85.0348587,-121.27481079,0.204589839999926
-85.02469635,-121.33747864,0.204833980000103
-85.01431274,-121.34320831,0.204833980000103
-85.03341675,-121.34069824,0.205200190000141
-85.00063324,-121.25765991,0.205444339999985
-85.03440094,-121.33772278,0.205444339999985
-85.04093933,-121.27973175,0.205566410000074
-85.00373077,-121.32679749,0.205810550000024
-85.02263641,-121.34979248,0.205810550000024
-85.01064301,-121.25721741,0.206054689999974
-85.04136658,-121.32039642,0.206054689999974
-85.00508118,-121.25126648,0.206298830000151
-85.0317688,-121.26888275,0.206909180000139
-85.03292847,-121.32015228,0.20703125
-85.03074646,-121.30834198,0.20727538999995
-85.02113342,-121.26502228,0.207397460000038
-85.04064178,-121.33576202,0.207397460000038
-85.00215912,-121.26390076,0.207641599999988
-85.01867676,-121.26342773,0.207763670000077
-85.03388977,-121.34055328,0.207763670000077
-85.04789734,-121.3186264,0.208374020000065
-85.00150299,-121.2605896,0.208496089999926
-85.00618744,-121.26248932,0.208618160000015
-85.03539276,-121.27243805,0.208740230000103
-85.01136017,-121.34274292,0.208862299999964
-85.00946045,-121.25382233,0.209106440000141
-85.048172,-121.30635834,0.209106440000141
-85.00361633,-121.32633972,0.209350589999985
-85.04524994,-121.33460236,0.209472660000074
-85.01847076,-121.34793091,0.209472660000074
-85.00773621,-121.25274658,0.209594729999935
-85.00549316,-121.26068115,0.209838870000112
-85.00270844,-121.26132965,0.210083010000062
-85.00634003,-121.26519775,0.210205080000151
-85.03407288,-121.34020996,0.210205080000151
-85.03484344,-121.27336884,0.210571289999962
-85.00122833,-121.25276184,0.210571289999962
-85.00131226,-121.2502594,0.21069336000005
-85.02507019,-121.26603699,0.21069336000005
-85.01925659,-121.25984955,0.21069336000005
-85.02337646,-121.26371765,0.211059570000089
-85.02924347,-121.30851746,0.21118163999995
-85.00502014,-121.25110626,0.211303710000038
-85.00395966,-121.26083374,0.211303710000038
-85.00653076,-121.25865936,0.211547849999988
-85.01413727,-121.25538635,0.211791989999938
-85.04907227,-121.33332825,0.212158199999976
-85.03604889,-121.27384949,0.212280270000065
-85.00525665,-121.25908661,0.212280270000065
-85.00595093,-121.260849,0.212768549999964
-85.01818848,-121.34790039,0.213012690000141
-85.00409698,-121.25576782,0.213134760000003
-85.02806854,-121.2650528,0.213256839999985
-85.01616669,-121.26966858,0.213256839999985
-85.01686096,-121.27144623,0.213256839999985
-85.00218201,-121.25319672,0.213256839999985
-85.00778198,-121.25813293,0.213500979999935
-85.0044632,-121.26003265,0.213500979999935
-85.01181793,-121.26451111,0.213745120000112
-85.02871704,-121.34161377,0.213989260000062
-85.00895691,-121.26014709,0.214111330000151
-85.01692963,-121.2689209,0.214233400000012
-85.03414154,-121.34339905,0.214233400000012
-85.01730347,-121.25715637,0.2143554700001
-85.0147171,-121.26759338,0.2143554700001
-85.01602936,-121.25785828,0.21459961000005
-85.00843048,-121.26087189,0.21459961000005
-85.04711914,-121.3338623,0.215454099999988
-85.00775146,-121.25805664,0.215698239999938
-85.04953766,-121.28092957,0.215942380000115
-85.01113892,-121.26141357,0.216186520000065
-85.04548645,-121.34024811,0.216308589999926
-85.00047302,-121.32142639,0.216552730000103
-85.01210785,-121.2618866,0.217651370000112
-85.03344727,-121.26705933,0.2182617200001
-85.01792145,-121.34915924,0.2182617200001
-85.04216003,-121.32911682,0.2182617200001
-85.04633331,-121.27873993,0.218383789999962
-85.03713226,-121.26917267,0.218627930000139
-85.02046204,-121.34378815,0.218627930000139
-85.04538727,-121.27693939,0.21875
-85.00502014,-121.32833862,0.21875
-85.04403687,-121.34069824,0.219116210000038
-85.02558899,-121.26226807,0.219360349999988
-85.02362823,-121.26094818,0.219482420000077
-85.01695251,-121.26624298,0.219604489999938
-85.00894165,-121.2507019,0.219970699999976
-85.04276276,-121.27256012,0.220092770000065
-85.02976227,-121.34736633,0.220336910000015
-85.01241302,-121.25154114,0.220581049999964
-85.02941132,-121.34133148,0.220703120000053
-85.04769897,-121.32752228,0.221069339999985
-85.04705048,-121.31846619,0.221557620000112
-85.02432251,-121.33995056,0.221923830000151
-85.03543091,-121.33685303,0.223144530000127
-85.00637054,-121.25176239,0.223266599999988
-85.03446198,-121.33982849,0.223266599999988
-85.04129028,-121.270401,0.223510739999938
-85.04055023,-121.26983643,0.224487299999964
-85.04863739,-121.27484894,0.224975589999985
-85.0129776,-121.25566864,0.224975589999985
-85.01390839,-121.34868622,0.225219729999935
-85.00467682,-121.34246826,0.225219729999935
-85.01738739,-121.25830078,0.225585939999974
-85.02012634,-121.25862885,0.225952150000012
-85.00936127,-121.34996033,0.226928710000038
-85.00145721,-121.25523376,0.227050780000127
-85.02884674,-121.33847809,0.227416989999938
-85.01332855,-121.33981323,0.227539060000026
-85.00361633,-121.25778198,0.228027339999926
-85.00009918,-121.25039673,0.228149410000015
-85.01821136,-121.34423065,0.228149410000015
-85.03392029,-121.33979797,0.228759760000003
-85.00544739,-121.25505066,0.228881839999985
-85.02642822,-121.30886841,0.229248050000024
-85.01077271,-121.34938812,0.229248050000024
-85.01959229,-121.25849915,0.229370120000112
-85.0019989,-121.2529068,0.229736330000151
-85.01055145,-121.25943756,0.229858400000012
-85.00081635,-121.25086212,0.2299804700001
-85.02410126,-121.34588623,0.23022461000005
-85.03610992,-121.33934021,0.230957030000127
-85.00556946,-121.34191895,0.230957030000127
-85.00050354,-121.32691193,0.231201170000077
-85.00636292,-121.25672913,0.231933589999926
-85.0129776,-121.26094055,0.232177730000103
-85.02033234,-121.33789825,0.232299799999964
-85.00119781,-121.32798767,0.232421870000053
-85.03011322,-121.26473236,0.232666010000003
-85.03460693,-121.33397675,0.232788089999985
-85.00789642,-121.33881378,0.233032229999935
-85.01722717,-121.25279236,0.233154300000024
-85.00482178,-121.34480286,0.233276370000112
-85.01481628,-121.34989166,0.233398439999974
-85.02890015,-121.26262665,0.23461913999995
-85.03817749,-121.26969147,0.234741210000038
-85.0421524,-121.27055359,0.235229489999938
-85.01808929,-121.26399231,0.235839839999926
-85.01959991,-121.26352692,0.236083980000103
-85.00411224,-121.34512329,0.236083980000103
-85.0475769,-121.27242279,0.236938479999935
-85.01931763,-121.34076691,0.237060550000024
-85.02046204,-121.25200653,0.237182620000112
-85.0123291,-121.34561157,0.237426760000062
-85.03186035,-121.26287079,0.237915039999962
-85.01072693,-121.25009918,0.240234370000053
-85.01396179,-121.25068665,0.240600589999985
-85.01056671,-121.34304047,0.241333010000062
-85.01455688,-121.34815216,0.241455080000151
-85.03994751,-121.26651001,0.24194336000005
-85.04943848,-121.27481842,0.242065430000139
-85.00286865,-121.34581757,0.242065430000139
-85.00016785,-121.32904816,0.2421875
-85.002388,-121.33599854,0.242309570000089
-85.00182343,-121.3497467,0.242309570000089
-85.02857208,-121.25460052,0.242675780000127
-85.02594757,-121.25023651,0.243164060000026
-85.01589203,-121.25192261,0.243164060000026
-85.04725647,-121.27220154,0.243408199999976
-85.04144287,-121.26625061,0.243652339999926
-85.02895355,-121.33804321,0.245117189999974
-85.00861359,-121.34356689,0.245117189999974
-85.01403809,-121.3082428,0.245361330000151
-85.04003143,-121.26261902,0.245971680000139
-85.04660797,-121.26780701,0.246948239999938
-85.03936768,-121.25955963,0.247192380000115
-85.04348755,-121.2634201,0.247802730000103
-85.02593994,-121.25656891,0.248657229999935
-85.04309082,-121.32795715,0.249267580000151
