"X","Y","Z"
-84.97926331,-121.37895966,0.650024420000136
-84.95578766,-121.36466217,0.650146490000225
-84.9569931,-121.37943268,0.650512700000036
-84.95628357,-121.39591217,0.650878910000074
-84.95182037,-121.38878632,0.650878910000074
-84.95005035,-121.39215851,0.650878910000074
-84.96421051,-121.37539673,0.651123050000024
-84.96071625,-121.36932373,0.651123050000024
-84.96527863,-121.38053894,0.651367190000201
-84.96733093,-121.3806076,0.651611330000151
-84.96083832,-121.37320709,0.6518554700001
-84.96219635,-121.37461853,0.651977540000189
-84.95954895,-121.37386322,0.65209961000005
-84.95928192,-121.372612,0.65209961000005
-84.96865845,-121.37596893,0.652221680000139
-84.95362854,-121.38870239,0.652587890000177
-84.95768738,-121.39154053,0.653076170000077
-84.95919037,-121.3771286,0.653198250000059
-84.95256805,-121.39289093,0.653198250000059
-84.95126343,-121.39379883,0.653808600000048
-84.95140839,-121.38368988,0.653808600000048
-84.97093201,-121.37464905,0.654296880000174
-84.95742798,-121.38577271,0.654418950000036
-84.96051025,-121.37245941,0.654541020000124
-84.95794678,-121.39208221,0.654541020000124
-84.95652771,-121.37787628,0.654663090000213
-84.96573639,-121.37799072,0.655273440000201
-84.95182037,-121.36148834,0.655273440000201
-84.97316742,-121.37567139,0.655639650000012
-84.9608078,-121.38480377,0.655639650000012
-84.95041656,-121.38925171,0.655639650000012
-84.95023346,-121.39499664,0.6557617200001
-84.95733643,-121.37593842,0.6557617200001
-84.98108673,-121.37937164,0.656127930000139
-84.95641327,-121.39324188,0.656372070000089
-84.95992279,-121.38047791,0.656494140000177
-84.96868896,-121.37502289,0.656738280000127
-84.95178986,-121.39463806,0.656738280000127
-84.96282959,-121.3685379,0.656860350000215
-84.95044708,-121.38951874,0.657104500000059
-84.96219635,-121.38368225,0.657348640000009
-84.96604156,-121.37705994,0.657714850000048
-84.96257782,-121.38008118,0.657836920000136
-84.96066284,-121.38758087,0.657836920000136
-84.95800781,-121.38938141,0.657836920000136
-84.95266724,-121.35894775,0.657836920000136
-84.95707703,-121.38529205,0.657958990000225
-84.95517731,-121.39366913,0.658203130000174
-84.95864868,-121.38140869,0.658569340000213
-84.9592514,-121.37638855,0.658691410000074
-84.98036957,-121.38220978,0.659179690000201
-84.95345306,-121.39380646,0.659423830000151
-84.9556427,-121.38847351,0.660034180000139
-84.96762848,-121.37869263,0.66015625
-84.9522171,-121.36309814,0.66015625
-84.9812088,-121.37892151,0.660522460000038
-84.96362305,-121.38609314,0.660522460000038
-84.96224976,-121.38105774,0.660644530000127
-84.96063995,-121.3719101,0.660644530000127
-84.9588623,-121.36638641,0.660766600000215
-84.95983887,-121.37439728,0.660888670000077
-84.9641037,-121.38337708,0.661010750000059
-84.96006012,-121.38394928,0.661376960000098
-84.96381378,-121.37507629,0.661621100000048
-84.96846771,-121.37538147,0.661743170000136
-84.96031189,-121.38040161,0.661743170000136
-84.95411682,-121.35758972,0.661987310000086
-84.97042847,-121.37624359,0.662109380000174
-84.95172882,-121.3911972,0.662109380000174
-84.95815277,-121.38945007,0.662353520000124
-84.97364044,-121.38066864,0.662475590000213
-84.96164703,-121.38320923,0.662597660000074
-84.95178986,-121.36254883,0.663085940000201
-84.96144104,-121.37602234,0.663208010000062
-84.95992279,-121.38307953,0.663208010000062
-84.96304321,-121.38182831,0.663330080000151
-84.97506714,-121.3839035,0.663940430000139
-84.95510101,-121.39048767,0.663940430000139
-84.97290039,-121.3759079,0.6640625
-84.96338654,-121.37683868,0.664428710000038
-84.96349335,-121.37962341,0.664428710000038
-84.95001984,-121.39160156,0.664550780000127
-84.95731354,-121.38816833,0.664672850000215
-84.95110321,-121.38742828,0.664672850000215
-84.96176147,-121.38275146,0.664917000000059
-84.9553833,-121.3937912,0.664917000000059
-84.97952271,-121.38446045,0.665039070000148
-84.95821381,-121.38020325,0.665039070000148
-84.96572876,-121.37709045,0.665283210000098
-84.95204926,-121.39151764,0.665283210000098
-84.96160126,-121.3756485,0.665405280000186
-84.96131897,-121.37895966,0.665527350000048
-84.97541809,-121.38197327,0.665649420000136
-84.95493317,-121.39025116,0.665771490000225
-84.95942688,-121.37506104,0.665893560000086
-84.98042297,-121.38883209,0.666137700000036
-84.9801178,-121.38249207,0.666381840000213
-84.95809174,-121.39176178,0.666381840000213
-84.95893097,-121.38430786,0.666748050000024
-84.9536438,-121.39116669,0.666992190000201
-84.95659637,-121.36666107,0.666992190000201
-84.97189331,-121.37854767,0.667114260000062
-84.97399902,-121.37888336,0.667236330000151
-84.95542145,-121.3910675,0.6674804700001
-84.97015381,-121.37634277,0.667602540000189
-84.95031738,-121.39217377,0.667602540000189
-84.96563721,-121.37676239,0.66772461000005
-84.96466827,-121.37210083,0.667846680000139
-84.96788788,-121.37654877,0.667846680000139
-84.95275116,-121.35935211,0.66796875
-84.96270752,-121.37835693,0.668212890000177
-84.95433044,-121.36440277,0.668457030000127
-84.95435333,-121.39225006,0.668457030000127
-84.97503662,-121.38269806,0.668579100000215
-84.95237732,-121.39511108,0.668701170000077
-84.96276855,-121.38739777,0.668823250000059
-84.97763062,-121.38291168,0.669189460000098
-84.95722961,-121.35945129,0.669555670000136
-84.97184753,-121.37846375,0.669677740000225
-84.96211243,-121.38334656,0.669677740000225
-84.96820068,-121.37563324,0.670043950000036
-84.95726776,-121.38774109,0.670166020000124
-84.97914886,-121.38536072,0.670288090000213
-84.95881653,-121.3841095,0.670410160000074
-84.95243073,-121.3951416,0.670532230000163
-84.96086121,-121.3840332,0.6713867200001
-84.97753906,-121.38256836,0.67163086000005
-84.95678711,-121.3637085,0.67163086000005
-84.9608078,-121.38152313,0.671752930000139
-84.9573288,-121.38751984,0.671752930000139
-84.96156311,-121.3637619,0.671997070000089
-84.95887756,-121.38388062,0.671997070000089
-84.95446014,-121.39231873,0.672241210000038
-84.95908356,-121.38791656,0.672363280000127
-84.9679718,-121.37583923,0.672485350000215
-84.96556854,-121.37658691,0.672485350000215
-84.97516632,-121.38224792,0.672851570000148
-84.96109009,-121.38481903,0.672851570000148
-84.95334625,-121.36221313,0.673095710000098
-84.96395874,-121.37381744,0.673583990000225
-84.95890808,-121.3841629,0.673706060000086
-84.95455933,-121.38265228,0.674072270000124
-84.95433044,-121.39157867,0.674194340000213
-84.95713043,-121.38478088,0.674560550000024
-84.96616364,-121.37460327,0.674682620000112
-84.96768951,-121.37706757,0.675048830000151
-84.95214081,-121.39118195,0.6752929700001
-84.95632172,-121.39225769,0.675415040000189
-84.95497131,-121.38413239,0.67578125
-84.95567322,-121.38794708,0.67578125
-84.95371246,-121.39054871,0.67578125
-84.95213318,-121.39469147,0.67578125
-84.97238922,-121.38372803,0.675903320000089
-84.96096039,-121.37664795,0.675903320000089
-84.95307159,-121.36210632,0.675903320000089
-84.97238159,-121.37631989,0.676147460000038
-84.97779846,-121.38156128,0.676635750000059
-84.95748901,-121.39386749,0.676635750000059
-84.95675659,-121.38404083,0.676757820000148
-84.95651245,-121.36643982,0.676757820000148
-84.95613098,-121.38574982,0.677001960000098
-84.95661163,-121.38929749,0.677246100000048
-84.9673233,-121.37783051,0.677368170000136
-84.95173645,-121.39067078,0.677368170000136
-84.97918701,-121.38455963,0.677490240000225
-84.95967102,-121.3792572,0.677490240000225
-84.96116638,-121.3752594,0.677612310000086
-84.96504974,-121.37802124,0.678100590000213
-84.9524231,-121.38873291,0.678100590000213
-84.95993042,-121.3825531,0.678222660000074
-84.97454834,-121.38318634,0.678344730000163
-84.95510864,-121.39295959,0.678466800000024
-84.95880127,-121.3762207,0.678588870000112
-84.95246887,-121.39150238,0.678588870000112
-84.97400665,-121.37815857,0.6791992200001
-84.9553299,-121.39048004,0.6791992200001
-84.95858765,-121.37770081,0.679321290000189
-84.95552826,-121.38472748,0.679321290000189
-84.95069122,-121.39212799,0.679565430000139
-84.96762085,-121.37690735,0.679809570000089
-84.95204163,-121.39124298,0.680297850000215
-84.96098328,-121.3757019,0.680419920000077
-84.9559021,-121.37561035,0.680908210000098
-84.95778656,-121.38217163,0.681030280000186
-84.9777298,-121.38137817,0.681640630000174
-84.97368622,-121.38654327,0.682250980000163
-84.95452881,-121.38921356,0.682495120000112
-84.95805359,-121.3794632,0.682617190000201
-84.95854187,-121.37203217,0.682617190000201
-84.97490692,-121.38140869,0.682861330000151
-84.95539856,-121.38452148,0.682861330000151
-84.97236633,-121.38269043,0.6831054700001
-84.96016693,-121.37805176,0.683471680000139
-84.97064209,-121.38175201,0.683715820000089
-84.95948029,-121.36231232,0.683715820000089
-84.95305634,-121.39237213,0.683715820000089
-84.97389221,-121.37773895,0.684204100000215
-84.95619965,-121.36353302,0.684204100000215
-84.9553833,-121.37563324,0.684204100000215
-84.97167969,-121.37818146,0.684448250000059
-84.96246338,-121.37805176,0.684570320000148
-84.95503235,-121.38677216,0.684570320000148
-84.95371246,-121.38768005,0.684814460000098
-84.9519577,-121.38778687,0.685058600000048
-84.96748352,-121.37647247,0.685302740000225
-84.95948029,-121.38162231,0.685546880000174
-84.97457886,-121.38237762,0.685913090000213
-84.96896362,-121.37869263,0.685913090000213
-84.95883942,-121.37542725,0.685913090000213
-84.96473694,-121.37802887,0.686035160000074
-84.95574188,-121.3878479,0.686035160000074
-84.95851135,-121.3719635,0.686157230000163
-84.95423126,-121.39125061,0.686279300000024
-84.9525528,-121.36721039,0.686279300000024
-84.9540329,-121.39399719,0.686645510000062
-84.9682312,-121.3739624,0.686767580000151
-84.96151733,-121.38179779,0.686889650000012
-84.95909882,-121.38387299,0.68725586000005
-84.96227264,-121.378479,0.6875
-84.95496368,-121.39208221,0.6875
-84.97277832,-121.38114929,0.687744140000177
-84.96041107,-121.36852264,0.687866210000038
-84.95497131,-121.3953476,0.688110350000215
-84.95832062,-121.37670898,0.688354500000059
-84.9778595,-121.37980652,0.688598640000009
-84.95915222,-121.3839035,0.688720710000098
-84.95609283,-121.39118958,0.689208990000225
-84.95588684,-121.37615204,0.689575200000036
-84.95781708,-121.37879181,0.689575200000036
-84.95543671,-121.38687897,0.689819340000213
-84.96549988,-121.37567139,0.689941410000074
-84.96942139,-121.37613678,0.690063480000163
-84.959198,-121.38392639,0.690429690000201
-84.95397949,-121.36405182,0.690429690000201
-84.95282745,-121.39170074,0.690551760000062
-84.95803833,-121.37792969,0.69140625
-84.9552536,-121.38990021,0.691528320000089
-84.95854187,-121.38639832,0.691650390000177
-84.95285034,-121.39198303,0.692016600000215
-84.96717834,-121.37650299,0.692749030000186
-84.9703598,-121.38197327,0.692749030000186
-84.95198822,-121.39367676,0.692749030000186
-84.96482849,-121.37747955,0.692993170000136
-84.96856689,-121.37950897,0.693115240000225
-84.95905304,-121.38696289,0.693115240000225
-84.96029663,-121.3766098,0.693725590000213
-84.95973206,-121.37740326,0.693725590000213
-84.96018219,-121.38555908,0.693969730000163
-84.9571228,-121.3895874,0.694213870000112
-84.96199799,-121.38520813,0.6948242200001
-84.96114349,-121.38665771,0.69506836000005
-84.9571991,-121.3691864,0.69506836000005
-84.95494843,-121.37918854,0.695190430000139
-84.97602844,-121.38603973,0.695800780000127
-84.95644379,-121.38269043,0.695800780000127
-84.97389984,-121.38440704,0.696411140000009
-84.97653198,-121.3835907,0.696899420000136
-84.95787811,-121.38742828,0.696899420000136
-84.96759033,-121.37496948,0.697021490000225
-84.9621582,-121.37711334,0.697265630000174
-84.95385742,-121.36093903,0.697387700000036
-84.95861053,-121.38217163,0.697631840000213
-84.96446991,-121.37840271,0.697875980000163
-84.95664215,-121.38128662,0.698120120000112
-84.95880127,-121.38903046,0.698364260000062
-84.9537735,-121.36998749,0.698608400000012
-84.95720673,-121.38388824,0.6987304700001
-84.95484924,-121.39473724,0.6987304700001
-84.95964813,-121.37857819,0.69897461000005
-84.97889709,-121.38275909,0.69921875
-84.96212769,-121.37702942,0.699462890000177
-84.95485687,-121.39173889,0.699462890000177
-84.95285797,-121.39485168,0.699462890000177
-84.95574188,-121.37519836,0.699462890000177
-84.97678375,-121.38240814,0.699707030000127
-84.95729065,-121.37954712,0.699707030000127
-84.95049286,-121.36192322,0.700073250000059
-84.95391846,-121.38188171,0.700073250000059
-84.95276642,-121.38610077,0.700195320000148
-84.97244263,-121.38124084,0.700317390000009
-84.95774841,-121.37786102,0.700561530000186
-84.96853638,-121.37846375,0.700683600000048
-84.95467377,-121.37928772,0.700683600000048
-84.95128632,-121.36173248,0.701171880000174
-84.95509338,-121.38952637,0.701293950000036
-84.95179749,-121.39302826,0.701293950000036
-84.9588623,-121.38632202,0.701660160000074
-84.95337677,-121.38915253,0.701782230000163
-84.95063019,-121.38569641,0.702148440000201
-84.95323944,-121.39768219,0.7026367200001
-84.97582245,-121.38529968,0.702758790000189
-84.95822906,-121.38201904,0.702758790000189
-84.95668793,-121.38565826,0.702758790000189
-84.95252228,-121.39084625,0.702758790000189
-84.9683075,-121.37866211,0.703369140000177
-84.977211,-121.38831329,0.703369140000177
-84.95426941,-121.38799286,0.703491210000038
-84.96624756,-121.37857056,0.703613280000127
-84.95088959,-121.37715912,0.703613280000127
-84.9524765,-121.36269379,0.703613280000127
-84.95120239,-121.36170197,0.703613280000127
-84.96408844,-121.3792572,0.703857420000077
-84.95939636,-121.38363647,0.704223640000009
-84.95323181,-121.39518738,0.704223640000009
-84.95256805,-121.39087677,0.704345710000098
-84.95490265,-121.36940002,0.704345710000098
-84.95555115,-121.37843323,0.704467780000186
-84.95230103,-121.37911224,0.704956060000086
-84.95124054,-121.36184692,0.705078130000174
-84.95767975,-121.38703918,0.705688480000163
-84.96453094,-121.37654114,0.705810550000024
-84.95786285,-121.37638855,0.705932620000112
-84.95210266,-121.38459778,0.705932620000112
-84.9552002,-121.37515259,0.705932620000112
-84.95455933,-121.38137054,0.706054690000201
-84.96990967,-121.38153839,0.706298830000151
-84.97093964,-121.37796783,0.707153320000089
-84.95881653,-121.3859024,0.707153320000089
-84.96201324,-121.37674713,0.707275390000177
-84.9549408,-121.36289215,0.707397460000038
-84.96502686,-121.37535095,0.707519530000127
-84.96665192,-121.37702942,0.708251960000098
-84.96006775,-121.376091,0.708374030000186
-84.97966003,-121.38681793,0.708862310000086
-84.96764374,-121.3806076,0.709472660000074
-84.97479248,-121.37937164,0.709716800000024
-84.9621582,-121.37635803,0.709960940000201
-84.95603943,-121.38722229,0.709960940000201
-84.97205353,-121.3809433,0.710327150000012
-84.95361328,-121.38954926,0.710327150000012
-84.9666214,-121.37695313,0.710571290000189
-84.9643631,-121.37715149,0.710815430000139
-84.95134735,-121.36683655,0.7109375
-84.95426941,-121.37850952,0.7109375
-84.9600296,-121.37599182,0.711181640000177
-84.95758057,-121.37650299,0.711181640000177
-84.95570374,-121.37483215,0.711547850000215
-84.95539093,-121.38343811,0.711792000000059
-84.96193695,-121.37657928,0.712036140000009
-84.95037842,-121.39308167,0.712036140000009
-84.97283173,-121.37864685,0.712524420000136
-84.95343018,-121.38629913,0.712646490000225
-84.95272827,-121.3757019,0.712646490000225
-84.95043182,-121.38527679,0.712646490000225
-84.9697113,-121.38208008,0.713256840000213
-84.96595001,-121.37876129,0.713378910000074
-84.95995331,-121.37566376,0.713378910000074
-84.95480347,-121.38842773,0.713500980000163
-84.9520874,-121.36358643,0.713989260000062
-84.95433044,-121.36927032,0.714233400000012
-84.95182037,-121.3666687,0.714477540000189
-84.95536041,-121.37212372,0.71459961000005
-84.95218658,-121.39025116,0.71484375
-84.95088196,-121.39115906,0.715332030000127
-84.9606781,-121.38053131,0.715820320000148
-84.96308136,-121.38102722,0.716430670000136
-84.95540619,-121.37792206,0.716430670000136
-84.97123718,-121.38342285,0.716674810000086
-84.95870209,-121.37962341,0.717041020000124
-84.96440125,-121.3837738,0.717773440000201
-84.96421814,-121.38420868,0.720581060000086
