"X","Y","Z"
-85.01722717,-121.45713806,0.0729980500000238
-85.02194977,-121.4553299,0.0747070300001269
-85.02612305,-121.45599365,0.0815429700001005
-85.02490234,-121.45262909,0.0823974600000383
-85.03253174,-121.45001984,0.0825195300001269
-85.02990723,-121.4595108,0.0825195300001269
-85.02783203,-121.45812988,0.0828857399999379
-85.03514862,-121.45655823,0.0842285100000026
-85.03070068,-121.46463013,0.0847168000000238
-85.02902222,-121.46282196,0.0876464800001031
-85.03672028,-121.450737,0.0877685499999643
-85.03778839,-121.45587921,0.0877685499999643
-85.03032684,-121.45687103,0.0889892600000621
-85.02572632,-121.46547699,0.0891113300001507
-85.03095245,-121.46360016,0.0899658200000886
-85.03279877,-121.45655823,0.0904540999999881
-85.0316391,-121.45218658,0.0905761700000767
-85.03610229,-121.45278931,0.0908203100000264
-85.04099274,-121.45020294,0.10913086000005
-85.04055786,-121.45188141,0.123535160000074
-85.03878021,-121.45224762,0.123657229999935
-85.04141235,-121.45069885,0.123779300000024
-85.03594208,-121.45053101,0.12475586000005
-85.03861237,-121.45175171,0.125122070000089
-85.03948975,-121.45031738,0.125610349999988
-85.03466797,-121.45120239,0.125976560000026
-85.04701233,-121.45066833,0.126098630000115
-85.04276276,-121.45144653,0.126220699999976
-85.03688812,-121.45188904,0.126464839999926
-85.03932953,-121.45282745,0.126586910000015
-85.03848267,-121.45453644,0.127807620000112
-85.03742981,-121.4524765,0.129394530000127
-85.04293823,-121.45265961,0.129516599999988
-85.04759979,-121.4542923,0.130126949999976
-85.03830719,-121.45130157,0.130371089999926
-85.04319763,-121.45320892,0.131225589999985
-85.04347229,-121.45623779,0.131225589999985
-85.03637695,-121.45066071,0.131225589999985
-85.04519653,-121.45336914,0.131469729999935
-85.03925323,-121.45265198,0.131835939999974
-85.04460907,-121.45509338,0.132690430000139
-85.04374695,-121.45652771,0.132934570000089
-85.04489136,-121.45539093,0.134399410000015
-85.0473175,-121.45333099,0.134887690000141
-85.04463959,-121.45236969,0.135009760000003
-85.04911804,-121.45649719,0.1362304700001
-85.04646301,-121.45529175,0.136352539999962
-85.04337311,-121.45056152,0.138061520000065
-85.04717255,-121.45062256,0.139160160000074
-85.04168701,-121.45020294,0.139648439999974
-85.04698944,-121.45012665,0.14038086000005
-85.04988098,-121.45185852,0.14086913999995
-85.04515076,-121.45580292,0.143920900000012
-85.04602814,-121.45111084,0.144165039999962
-85.04425049,-121.45147705,0.14453125
-85.04824066,-121.45204926,0.144897460000038
-85.04673004,-121.45570374,0.145874020000065
-85.04212189,-121.45057678,0.146118160000015
-85.04985046,-121.45445251,0.146484370000053
-85.04724121,-121.45626831,0.147583010000062
-85.049263,-121.45617676,0.147705080000151
