"X","Y","Z"
-85.00125885,-121.37207794,0.375976560000026
-85.00723267,-121.36646271,0.376831049999964
-85.00344086,-121.37281799,0.378295900000012
-85.00296783,-121.37435913,0.380493160000015
-85.00608063,-121.37088776,0.380737299999964
-85.00244904,-121.37563324,0.383544920000077
-85.00028229,-121.36653137,0.385986330000151
-85.00475311,-121.37452698,0.386352539999962
-85.00167847,-121.37821198,0.38696288999995
-85.00092316,-121.36351013,0.387939449999976
-85.00626373,-121.37696075,0.387939449999976
-85.00228882,-121.36650085,0.389282229999935
-85.00140381,-121.37943268,0.390014650000012
-85.00282288,-121.37399292,0.390747070000089
-85.00261688,-121.38169098,0.391113280000127
-85.00447083,-121.36723328,0.391601560000026
-85.00138855,-121.36962891,0.392333980000103
-85.00347137,-121.38706207,0.393066410000074
-85.00440216,-121.37560272,0.393676760000062
-85.00109863,-121.35479736,0.3940429700001
-85.00570679,-121.38806152,0.394897460000038
-85.00338745,-121.37082672,0.396728510000003
-85.00328827,-121.3789978,0.397460939999974
-85.00285339,-121.38799286,0.398559570000089
-85.00540161,-121.36340332,0.399658199999976
-85.00359344,-121.37808228,0.399902339999926
-85.00710297,-121.36428833,0.400756839999985
-85.00153351,-121.36823273,0.401367189999974
-85.0029068,-121.38838196,0.401367189999974
-85.00505829,-121.38027191,0.401611330000151
-85.00422668,-121.37506104,0.4018554700001
-85.00847626,-121.36727142,0.40209961000005
-85.00798798,-121.36123657,0.402221680000139
-85.00348663,-121.39486694,0.40234375
-85.00498199,-121.37995911,0.403320310000026
-85.0062027,-121.3600235,0.403564449999976
-85.0005188,-121.3708725,0.404663089999985
-85.0082016,-121.36849976,0.404907229999935
-85.00045776,-121.36319733,0.404907229999935
-85.00727844,-121.36406708,0.405273439999974
-85.00247192,-121.36430359,0.405517580000151
-85.00341034,-121.36022949,0.406616210000038
-85.00840759,-121.36711121,0.406616210000038
-85.00228119,-121.3560791,0.407714839999926
-85.00679779,-121.38272858,0.407714839999926
-85.00473785,-121.39006042,0.407714839999926
-85.0046463,-121.36502838,0.407958980000103
-85.00907898,-121.37406921,0.407958980000103
-85.00496674,-121.37153625,0.409545900000012
-85.00509644,-121.36358643,0.4096679700001
-85.00405884,-121.35738373,0.410766599999988
-85.00579834,-121.3940506,0.411010739999938
-85.00643158,-121.37373352,0.411376949999976
-85.00502014,-121.36327362,0.411743160000015
-85.00521851,-121.37037659,0.411987299999964
-85.00787354,-121.37825012,0.411987299999964
-85.00662994,-121.35753632,0.412475589999985
-85.00200653,-121.35745239,0.413208010000062
-85.00760651,-121.38690948,0.4140625
-85.00256348,-121.35523987,0.414672849999988
-85.00624847,-121.35826874,0.415527339999926
-85.00404358,-121.35745239,0.415527339999926
-85.00673676,-121.36430359,0.415527339999926
-85.00672913,-121.3974762,0.416503910000074
-85.00640106,-121.3737793,0.416625979999935
-85.00756836,-121.36100769,0.416870120000112
-85.00700378,-121.38897705,0.416870120000112
-85.00714111,-121.35521698,0.416992189999974
-85.00525665,-121.38677216,0.417358400000012
-85.00395203,-121.3571167,0.41796875
-85.00704193,-121.37078857,0.41796875
-85.00811005,-121.35877991,0.418823239999938
-85.00081635,-121.36054993,0.418823239999938
-85.00675964,-121.35595703,0.419677730000103
-85.00914764,-121.35520935,0.419799799999964
-85.00566864,-121.40115356,0.419799799999964
-85.00604248,-121.39185333,0.420532229999935
-85.00650787,-121.39785004,0.421508789999962
-85.00460815,-121.35428619,0.42163086000005
-85.00784302,-121.36740875,0.42163086000005
-85.00980377,-121.36087036,0.421752930000139
-85.00695801,-121.38036346,0.421875
-85.00536346,-121.36044312,0.423583980000103
-85.00604248,-121.39936829,0.424316410000074
-85.00653839,-121.38213348,0.424682620000112
-85.00383759,-121.3568573,0.425170900000012
-85.00816345,-121.35800934,0.4252929700001
-85.0058136,-121.35900116,0.4252929700001
-85.00552368,-121.40065765,0.426757810000026
-85.00404358,-121.35546875,0.427124020000065
-85.00348663,-121.40077972,0.427734370000053
-85.00125122,-121.35806274,0.427978510000003
-85.00538635,-121.36077118,0.428100589999985
-85.00765991,-121.40242767,0.428955080000151
-85.00224304,-121.35423279,0.429077150000012
-85.00689697,-121.36195374,0.4291992200001
-85.00704193,-121.37979889,0.429321289999962
-85.00547791,-121.40057373,0.429321289999962
-85.00360107,-121.40016174,0.430053710000038
-85.00524902,-121.36019135,0.430664060000026
-85.00861359,-121.36408234,0.431030270000065
-85.00473022,-121.3957901,0.431396480000103
-85.00760651,-121.40232849,0.431640620000053
-85.00508118,-121.39385986,0.4331054700001
-85.00602722,-121.36528778,0.43334961000005
-85.00237274,-121.36118317,0.43383788999995
-85.00673676,-121.3883667,0.43383788999995
-85.00868225,-121.38053894,0.434448239999938
-85.00653076,-121.36283112,0.434692380000115
-85.0036087,-121.36598969,0.434814449999976
-85.00686646,-121.36940002,0.434936520000065
-85.00866699,-121.37310791,0.435180660000015
-85.00428772,-121.40490723,0.435668940000141
-85.00775909,-121.36634064,0.436645510000062
-85.0047226,-121.41192627,0.436889650000012
-85.00401306,-121.36428833,0.4370117200001
-85.00479126,-121.40245056,0.437133789999962
-85.0080719,-121.38259888,0.43725586000005
-85.00562286,-121.36595917,0.438110349999988
-85.0005188,-121.35984802,0.438232420000077
-85.00727844,-121.37760925,0.438476560000026
-85.00624084,-121.39723206,0.438720699999976
-85.00592804,-121.37245178,0.440307620000112
-85.00068665,-121.36688995,0.440551760000062
-85.00681305,-121.37915039,0.440795900000012
-85.00195313,-121.37171936,0.441040039999962
-85.00447845,-121.3704071,0.441528320000089
-85.00447083,-121.40357971,0.442626949999976
-85.00022888,-121.36843109,0.442871089999926
-85.00518799,-121.40953827,0.443359370000053
-85.00563812,-121.39820099,0.443481440000141
-85.00639343,-121.38831329,0.443847660000074
-85.00536346,-121.38339233,0.444702150000012
-85.00021362,-121.37702179,0.445434570000089
-85.0030899,-121.38230133,0.445434570000089
-85.0045166,-121.41134644,0.446411130000115
-85.00144196,-121.38054657,0.446533199999976
-85.00678253,-121.39398956,0.447143549999964
-85.00631714,-121.40531921,0.447265620000053
-85.00518799,-121.39250183,0.447753910000074
-85.00189209,-121.38648987,0.44921875
