"X","Y","Z"
-85.05021667,-121.34567261,0.109252930000139
-85.05020142,-121.33822632,0.109985349999988
-85.0500412,-121.34613037,0.111572260000003
-85.05145264,-121.34066772,0.112915039999962
-85.05371857,-121.34925842,0.116455080000151
-85.05586243,-121.34979248,0.117797849999988
-85.05493164,-121.34410095,0.118041989999938
-85.05062103,-121.34310913,0.120483400000012
-85.05068207,-121.34223938,0.122680660000015
-85.05322266,-121.34220123,0.123535160000074
-85.05915833,-121.34501648,0.124389650000012
-85.05367279,-121.34075928,0.12524413999995
-85.06278992,-121.34780121,0.125610349999988
-85.05609894,-121.33895111,0.125854489999938
-85.05391693,-121.33959198,0.127685550000024
-85.05612183,-121.33911896,0.127929689999974
-85.06080627,-121.33838654,0.128173830000151
-85.05040741,-121.33509827,0.130493160000015
-85.06508636,-121.33943939,0.131103510000003
-85.06739044,-121.33943939,0.131835939999974
-85.05802155,-121.33985138,0.131958010000062
-85.06073761,-121.33821869,0.133178710000038
-85.05024719,-121.34468842,0.133300780000127
-85.05589294,-121.33946991,0.133422849999988
-85.07003021,-121.34616852,0.135375979999935
-85.06027222,-121.3397522,0.135742189999974
-85.05502319,-121.34587097,0.13647461000005
-85.05082703,-121.34204102,0.137084960000038
-85.05037689,-121.34451294,0.137084960000038
-85.06494141,-121.33895874,0.137817380000115
-85.05664825,-121.34451294,0.137939449999976
-85.05461121,-121.33596039,0.138549799999964
-85.05085754,-121.33905029,0.138671870000053
-85.05548096,-121.34417725,0.138916010000003
-85.05225372,-121.34120178,0.140625
-85.05719757,-121.33377838,0.141235349999988
-85.05625153,-121.34176636,0.141479489999938
-85.07241821,-121.33699036,0.141845699999976
-85.05911255,-121.33438873,0.141845699999976
-85.06041718,-121.34310913,0.141845699999976
-85.06958771,-121.34676361,0.142211910000015
-85.052948,-121.33952332,0.142578120000053
-85.05007935,-121.33779907,0.142700190000141
-85.05760193,-121.33209991,0.142944339999985
-85.05519104,-121.33995819,0.143310550000024
-85.05693054,-121.33708954,0.143554689999974
-85.05406952,-121.33537292,0.143920900000012
-85.05503845,-121.33332825,0.144653320000089
-85.0510025,-121.33638763,0.14477538999995
-85.06204224,-121.3365097,0.145141599999988
-85.07116699,-121.34095001,0.145263670000077
-85.05345917,-121.33734894,0.145385739999938
-85.05696869,-121.33737946,0.145507810000026
-85.06033325,-121.33940125,0.145629880000115
-85.06166077,-121.33850098,0.145874020000065
-85.05014801,-121.33509064,0.146240230000103
-85.05053711,-121.33265686,0.146606440000141
-85.06343079,-121.33865356,0.146606440000141
-85.05506134,-121.33674622,0.147094729999935
-85.07377625,-121.34008026,0.147216800000024
-85.0511322,-121.33895111,0.147216800000024
-85.0544281,-121.33541107,0.147338870000112
-85.05680847,-121.33689117,0.147338870000112
-85.06237793,-121.33067322,0.147705080000151
-85.05220032,-121.33827972,0.147705080000151
-85.06630707,-121.33239746,0.148071289999962
-85.05513,-121.33953094,0.148315430000139
-85.06504822,-121.32881165,0.1484375
-85.05137634,-121.3394928,0.1484375
-85.05512238,-121.33377075,0.149414060000026
-85.05291748,-121.33937073,0.149414060000026
-85.05445862,-121.33075714,0.149414060000026
-85.0577774,-121.33499146,0.149536130000115
-85.06671143,-121.33071899,0.149780270000065
-85.06307983,-121.33792114,0.149902339999926
