"X","Y","Z"
-84.90135193,-121.45201874,0.0833740300001864
-84.89894867,-121.45084381,0.0839843800001745
-84.8990097,-121.4508667,0.0858154300001388
-84.89835358,-121.45008087,0.0870361400000093
-84.90086365,-121.45381165,0.088378910000074
-84.89711761,-121.45130157,0.0908203200001481
-84.90158844,-121.4521637,0.0914306700001362
-84.90052795,-121.45282745,0.0914306700001362
-84.90226746,-121.4502182,0.0921630900002128
-84.89650726,-121.45027161,0.0926513700001124
-84.89369965,-121.45131683,0.0936279300001388
-84.8999176,-121.4553299,0.0941162100000383
-84.90171051,-121.4519577,0.0947265700001481
-84.88677979,-121.45097351,0.0952148500000476
-84.89572906,-121.45175934,0.0955810600000859
-84.89819336,-121.45245361,0.0958252000000357
-84.89733124,-121.4541626,0.0968017600000621
-84.89845276,-121.45300293,0.0975341800001388
-84.90621185,-121.45011139,0.0977783200000886
-84.90116882,-121.45372772,0.0981445300001269
-84.89112091,-121.45094299,0.0985107500000595
-84.90737152,-121.45197296,0.0992431700001362
-84.88361359,-121.45111084,0.0994873100000859
-84.88323975,-121.45310974,0.100708010000062
-84.9067688,-121.45069885,0.1010742200001
-84.903862,-121.45272827,0.10131836000005
-84.89768982,-121.45175934,0.102294920000077
-84.88925934,-121.45059967,0.102539070000148
-84.87902069,-121.45004272,0.102661140000009
-84.89972687,-121.45168304,0.103027350000048
-84.89578247,-121.45413208,0.103027350000048
-84.89395905,-121.45498657,0.103393560000086
-84.88777161,-121.45101166,0.104125980000163
-84.90129852,-121.45131683,0.104248050000024
-84.88288116,-121.45262909,0.104248050000024
-84.896698,-121.45572662,0.104492190000201
-84.8915863,-121.45407867,0.10546875
-84.90248871,-121.45294189,0.106201170000077
-84.89450836,-121.45558167,0.106323250000059
-84.87940216,-121.45314026,0.106323250000059
-84.9029007,-121.45097351,0.106445320000148
-84.89984131,-121.45173645,0.106689460000098
-84.89608002,-121.4516983,0.106811530000186
-84.89830017,-121.45237732,0.107299810000086
-84.88491821,-121.45749664,0.108276370000112
-84.89012146,-121.45802307,0.108398440000201
-84.89923859,-121.45046997,0.108520510000062
-84.89395905,-121.46032715,0.108520510000062
-84.87705231,-121.45223999,0.10913086000005
-84.88259125,-121.45192719,0.109252930000139
-84.89151001,-121.45990753,0.109619140000177
-84.89394379,-121.45131683,0.109741210000038
-84.87747955,-121.45027924,0.110229500000059
-84.8884201,-121.45816803,0.110473640000009
-84.88263702,-121.45195007,0.110717780000186
-84.88127136,-121.45353699,0.110839850000048
-84.89221954,-121.46098328,0.110839850000048
-84.87619781,-121.45095062,0.110961920000136
-84.89955902,-121.45404816,0.111450200000036
-84.89553833,-121.45097351,0.111694340000213
-84.88829803,-121.46018982,0.111694340000213
-84.8973999,-121.45639801,0.112548830000151
-84.89203644,-121.46073914,0.112548830000151
-84.88079834,-121.4519577,0.1127929700001
-84.89404297,-121.45462799,0.112915040000189
-84.89761353,-121.45391846,0.11303711000005
-84.89341736,-121.45935059,0.11303711000005
-84.90026093,-121.4553833,0.113159180000139
-84.89143372,-121.46246338,0.11328125
-84.88765717,-121.45941162,0.113525390000177
-84.8807373,-121.45317078,0.114013670000077
-84.89611053,-121.45758057,0.114257820000148
-84.90097046,-121.45320129,0.114501960000098
-84.88565826,-121.4597702,0.114501960000098
-84.89811707,-121.45448303,0.114746100000048
-84.88973236,-121.46234894,0.114868170000136
-84.89103699,-121.46170807,0.115112310000086
-84.8776474,-121.45011902,0.115234380000174
-84.88037872,-121.45410919,0.116088870000112
-84.89000702,-121.46264648,0.116333010000062
-84.88976288,-121.45961761,0.11694336000005
-84.88083649,-121.45516968,0.117553710000038
-84.87934875,-121.45599365,0.118408210000098
-84.88288116,-121.45509338,0.118408210000098
-84.88690948,-121.45816803,0.118530280000186
-84.87571716,-121.45210266,0.118652350000048
-84.88889313,-121.45858002,0.118652350000048
-84.8762207,-121.45056152,0.118774420000136
-84.89408875,-121.46000671,0.119995120000112
-84.88111115,-121.45272064,0.119995120000112
-84.88516998,-121.45555115,0.120361330000151
-84.88851929,-121.45757294,0.120483400000012
-84.89740753,-121.45626831,0.120727540000189
-84.89341736,-121.46247864,0.120727540000189
-84.89495087,-121.45583344,0.12109375
-84.8767395,-121.45829773,0.121704100000215
-84.88633728,-121.45716858,0.121826170000077
-84.88043976,-121.45964813,0.122314460000098
-84.87767029,-121.45272827,0.122436530000186
-84.87545776,-121.45532227,0.122436530000186
-84.88989258,-121.45696259,0.122680670000136
-84.87521362,-121.45230103,0.122680670000136
-84.89613342,-121.45745087,0.122802740000225
-84.90035248,-121.45503235,0.123168950000036
-84.8961792,-121.46022034,0.123168950000036
-84.88931274,-121.46144104,0.123168950000036
-84.88368988,-121.45623016,0.123168950000036
-84.88036346,-121.4539566,0.123291020000124
-84.87815094,-121.45353699,0.123657230000163
-84.872612,-121.45385742,0.123779300000024
-84.87622833,-121.45796204,0.123901370000112
-84.88755035,-121.46180725,0.124145510000062
-84.87705231,-121.45497131,0.124145510000062
-84.87595367,-121.45613861,0.124145510000062
-84.90306091,-121.45926666,0.124267580000151
-84.88204193,-121.46514893,0.1245117200001
-84.87950897,-121.45265961,0.124877930000139
-84.88201904,-121.45912933,0.124877930000139
-84.88134003,-121.46134186,0.124877930000139
-84.88868713,-121.46041107,0.125
-84.87129974,-121.45202637,0.125366210000038
-84.88603973,-121.46247101,0.125488280000127
-84.89716339,-121.46159363,0.125976570000148
-84.8787384,-121.46289825,0.125976570000148
-84.88250732,-121.45968628,0.126098640000009
-84.87864685,-121.4594574,0.126220710000098
-84.88095093,-121.46057892,0.126464850000048
-84.87963104,-121.46147919,0.126708990000225
-84.86932373,-121.45214081,0.126708990000225
-84.88562012,-121.46195221,0.126953130000174
-84.89691162,-121.45883179,0.127197270000124
-84.88276672,-121.46350098,0.127807620000112
-84.87535858,-121.46005249,0.127929690000201
-84.8736496,-121.45826721,0.127929690000201
-84.89431,-121.46040344,0.128051760000062
-84.88056946,-121.46282959,0.128173830000151
-84.86737061,-121.45201111,0.128173830000151
-84.8891983,-121.45850372,0.1284179700001
-84.89720917,-121.45887756,0.12866211000005
-84.87861633,-121.46569061,0.12890625
-84.87653351,-121.46230316,0.129028320000089
-84.88372803,-121.4613266,0.129028320000089
-84.9001236,-121.45710754,0.129150390000177
-84.88465881,-121.46868134,0.129150390000177
-84.86675262,-121.45398712,0.129516600000215
-84.88950348,-121.46154785,0.129638670000077
-84.86898041,-121.45440674,0.129638670000077
-84.87407684,-121.46044922,0.129760750000059
-84.89013672,-121.45983887,0.129882820000148
-84.88594055,-121.46227264,0.130004890000009
-84.8780899,-121.45204926,0.130493170000136
-84.86702728,-121.45427704,0.130981450000036
-84.87573242,-121.46173859,0.131103520000124
-84.86789703,-121.45285034,0.131225590000213
-84.88732147,-121.45813751,0.131469730000163
-84.88297272,-121.46910095,0.132202150000012
-84.88764191,-121.46720886,0.1323242200001
-84.8684082,-121.4564209,0.1323242200001
-84.8886795,-121.46353149,0.132446290000189
-84.86257935,-121.45094299,0.132690430000139
-84.88269806,-121.46331787,0.133300780000127
-84.87496185,-121.46296692,0.133544920000077
-84.89939117,-121.45861816,0.133667000000059
-84.8865509,-121.46563721,0.133911140000009
-84.86464691,-121.45388794,0.134033210000098
-84.88056183,-121.46542358,0.134155280000186
-84.90045166,-121.45494843,0.134399420000136
-84.86131287,-121.45188141,0.134643560000086
-84.88745117,-121.46421814,0.134887700000036
-84.88465118,-121.47128296,0.135131840000213
-84.87389374,-121.46140289,0.135375980000163
-84.87882996,-121.4584198,0.135498050000024
-84.88886261,-121.46884918,0.135498050000024
-84.87010193,-121.45861053,0.135742190000201
-84.85936737,-121.45149231,0.135742190000201
-84.86224365,-121.4502182,0.136108400000012
-84.88903046,-121.46060181,0.13647461000005
-84.89189148,-121.46259308,0.136596680000139
-84.88950348,-121.46440887,0.136840820000089
-84.88868713,-121.4683609,0.136840820000089
-84.87351227,-121.46366119,0.137084960000038
-84.87045288,-121.46183777,0.137207030000127
-84.88417816,-121.46524811,0.137207030000127
-84.89099884,-121.45826721,0.137451170000077
-84.89441681,-121.46605682,0.137695320000148
-84.88931274,-121.46089935,0.137939460000098
-84.88314056,-121.47245026,0.137939460000098
-84.87914276,-121.46913147,0.138061530000186
-84.87480927,-121.45794678,0.138183600000048
-84.87467957,-121.465271,0.138305670000136
-84.88804626,-121.4675827,0.138305670000136
-84.86656952,-121.4568634,0.138671880000174
-84.88604736,-121.46768188,0.138916020000124
-84.89157867,-121.46434784,0.139038090000213
-84.87548828,-121.45993805,0.139282230000163
-84.87188721,-121.46282196,0.139282230000163
-84.89486694,-121.4578476,0.139526370000112
-84.89376831,-121.45902252,0.139526370000112
-84.86975098,-121.46138763,0.139526370000112
-84.87718964,-121.46900177,0.139648440000201
-84.88503265,-121.47162628,0.1401367200001
-84.89311981,-121.46122742,0.140258790000189
-84.86534119,-121.45729828,0.140747070000089
-84.88011932,-121.47049713,0.140747070000089
-84.88362122,-121.46425629,0.140991210000038
-84.87004089,-121.46144104,0.140991210000038
-84.88388824,-121.46729279,0.140991210000038
-84.87220001,-121.46027374,0.141235350000215
-84.8754425,-121.46637726,0.141479500000059
-84.8814621,-121.46961212,0.141479500000059
-84.88437653,-121.47084808,0.141601570000148
-84.87631226,-121.46463013,0.141845710000098
-84.88725281,-121.46630859,0.141845710000098
-84.85957336,-121.45134735,0.141967780000186
-84.88038635,-121.47078705,0.142211920000136
-84.9493866,-121.45307159,0.142211920000136
-84.87571716,-121.45157623,0.142456060000086
-84.88279724,-121.46572113,0.142578130000174
-84.88442993,-121.47387695,0.142578130000174
-84.87097168,-121.46304321,0.142700200000036
-84.89273834,-121.45748138,0.142822270000124
-84.85894012,-121.4535675,0.143188480000163
-84.8611908,-121.45375061,0.143432620000112
-84.92784882,-121.45623779,0.143798830000151
-84.88552094,-121.46695709,0.144165040000189
-84.8636322,-121.45496368,0.14428711000005
-84.87689209,-121.46829224,0.144409180000139
-84.85899353,-121.45359802,0.144897460000038
-84.87998962,-121.46729279,0.144897460000038
-84.86834717,-121.45909882,0.145141600000215
-84.88361359,-121.46932983,0.145141600000215
-84.85942078,-121.45137787,0.145263670000077
-84.88490295,-121.46266937,0.145751960000098
-84.86369324,-121.45474243,0.145751960000098
-84.88110352,-121.46312714,0.145874030000186
-84.87896729,-121.47123718,0.146118170000136
-84.93846893,-121.45320892,0.146118170000136
-84.86441803,-121.45855713,0.146484380000174
-84.88973999,-121.45880127,0.146484380000174
-84.87068939,-121.46508026,0.146606450000036
-84.88002014,-121.46756744,0.146606450000036
-84.85769653,-121.45152283,0.146728520000124
-84.87786102,-121.47292328,0.146850590000213
-84.87006378,-121.46678925,0.146850590000213
-84.88185883,-121.46672058,0.147094730000163
-84.8915329,-121.45870209,0.147460940000201
-84.88404846,-121.46463776,0.147460940000201
-84.86180115,-121.46038055,0.147460940000201
-84.85421753,-121.45150757,0.147583010000062
-84.86972809,-121.45697021,0.147827150000012
-84.88938141,-121.46080017,0.1479492200001
-84.85929108,-121.45417023,0.1479492200001
-84.87345886,-121.4718399,0.1479492200001
-84.89092255,-121.4604187,0.14819336000005
-84.86144257,-121.46212006,0.14819336000005
-84.94933319,-121.45012665,0.148315430000139
-84.88475037,-121.4657135,0.148681640000177
-84.86698914,-121.45635223,0.148803710000038
-84.85830688,-121.46063232,0.148803710000038
-84.86656952,-121.46729279,0.148803710000038
-84.87989044,-121.46382904,0.148925780000127
-84.87190247,-121.4667511,0.149414070000148
-84.93338013,-121.45736694,0.149414070000148
-84.86415863,-121.466362,0.149536140000009
-84.88076782,-121.46240997,0.149658210000098
-84.86969757,-121.46930695,0.149658210000098
