"X","Y","Z"
-85.04821014,-121.45789337,0.150512690000141
-85.04737091,-121.45635223,0.15209961000005
-85.04982758,-121.45703888,0.152221680000139
-85.0429306,-121.45223999,0.152221680000139
-85.04730988,-121.45890808,0.15649413999995
-85.04512787,-121.45799255,0.156616210000038
-85.04582977,-121.4593277,0.158325190000141
-85.04962921,-121.46240234,0.159423830000151
-85.04366302,-121.45567322,0.15991211000005
-85.04615784,-121.45938873,0.161010739999938
-85.04817963,-121.45983124,0.162719729999935
-85.04444122,-121.45652771,0.163208010000062
-85.04779816,-121.46208191,0.164184570000089
-85.04203796,-121.45587158,0.165039060000026
-85.00144196,-121.45075226,0.190795900000012
-85.04605865,-121.45812225,0.1948242200001
-85.00112915,-121.45854187,0.208862299999964
-85.0005188,-121.4519577,0.21069336000005
-85.00238037,-121.45358276,0.211669920000077
-85.00086212,-121.46717834,0.211669920000077
-85.00189972,-121.46360016,0.212768549999964
-85.00180054,-121.47303009,0.213867189999974
-85.00228882,-121.45323944,0.214233400000012
-85.00254059,-121.4704895,0.216064449999976
-85.00399017,-121.45536041,0.216308589999926
-85.0047226,-121.45284271,0.2182617200001
-85.00200653,-121.45334625,0.219482420000077
-85.00022125,-121.45214844,0.220703120000053
-85.0042572,-121.45323944,0.223510739999938
-85.00198364,-121.45340729,0.224731440000141
-85.00029755,-121.45144653,0.224853510000003
-85.00589752,-121.45635223,0.226928710000038
-85.00171661,-121.45355988,0.229003910000074
-85.00547028,-121.45810699,0.2299804700001
-85.00801086,-121.45680237,0.23022461000005
-85.00324249,-121.45599365,0.230590820000089
-85.00977325,-121.45793152,0.231201170000077
-85.00553131,-121.45722961,0.232421870000053
-85.0071106,-121.45996094,0.232788089999985
-85.00203705,-121.45279694,0.233764650000012
-85.00261688,-121.4580307,0.2338867200001
-85.00900269,-121.46051788,0.234375
-85.00282288,-121.45789337,0.236450190000141
-85.00021362,-121.45023346,0.237060550000024
-85.00087738,-121.45596313,0.237304689999974
-85.0078125,-121.46472931,0.237670900000012
-85.00437927,-121.46056366,0.23828125
-85.0057373,-121.46350861,0.240600589999985
-85.00845337,-121.47162628,0.240966800000024
-85.00595856,-121.45475006,0.241333010000062
-85.00324249,-121.4552536,0.243041989999938
-85.00898743,-121.46939087,0.243164060000026
-85.00399017,-121.45274353,0.244506839999985
-85.00466919,-121.45973206,0.244995120000112
-85.00628662,-121.46141052,0.24584961000005
-85.00803375,-121.47226715,0.246459960000038
-85.00595093,-121.47088623,0.246948239999938
-85.00740814,-121.45703125,0.247436520000065
-85.00868988,-121.47796631,0.247436520000065
-85.00000763,-121.45831299,0.247436520000065
-85.00771332,-121.4732666,0.248779300000024
-85.00814819,-121.46190643,0.249389650000012
-85.00006866,-121.45744324,0.249633789999962
-85.00469208,-121.45877838,0.24975586000005
