"X","Y","Z"
-84.91001129,-121.3430481,0.181518560000086
-84.91017151,-121.3457489,0.181640630000174
-84.93199158,-121.34425354,0.181762700000036
-84.92108154,-121.34114838,0.181762700000036
-84.88169098,-121.33686829,0.181762700000036
-84.92675781,-121.28916168,0.181884770000124
-84.90981293,-121.33351898,0.181884770000124
-84.89997864,-121.32820129,0.181884770000124
-84.8789978,-121.3350296,0.181884770000124
-84.88633728,-121.34803009,0.181884770000124
-84.90997314,-121.34427643,0.182006840000213
-84.87992859,-121.33705902,0.182006840000213
-84.87294769,-121.34764862,0.182128910000074
-84.91323853,-121.33586884,0.182250980000163
-84.90727234,-121.34243774,0.182250980000163
-84.9454422,-121.2574234,0.182373050000024
-84.88764191,-121.32872772,0.182495120000112
-84.89910889,-121.3367691,0.182739260000062
-84.90358734,-121.34004974,0.182861330000151
-84.88510132,-121.34721375,0.182861330000151
-84.89945221,-121.34333038,0.182983400000012
-84.87988281,-121.33827209,0.182983400000012
-84.87947083,-121.34326935,0.182983400000012
-84.88854218,-121.34050751,0.182983400000012
-84.91371155,-121.34411621,0.1831054700001
-84.89615631,-121.33123016,0.183227540000189
-84.89045715,-121.34185791,0.183227540000189
-84.89820099,-121.33635712,0.183227540000189
-84.93383789,-121.28890991,0.18334961000005
-84.87905884,-121.34049225,0.18334961000005
-84.92624664,-121.34300995,0.183471680000139
-84.877388,-121.32991791,0.183471680000139
-84.88062286,-121.3307724,0.18359375
-84.90824127,-121.3429184,0.183715820000089
-84.88096619,-121.34304047,0.183715820000089
-84.92153931,-121.32312775,0.183837890000177
-84.92404938,-121.34143066,0.183837890000177
-84.91320801,-121.34382629,0.183837890000177
-84.8821106,-121.33856964,0.183837890000177
-84.88876343,-121.32518768,0.183837890000177
-84.89672852,-121.33644867,0.183959960000038
-84.89105225,-121.3328476,0.183959960000038
-84.93531036,-121.28372192,0.184082030000127
-84.93743134,-121.34510803,0.184082030000127
-84.91316986,-121.34506989,0.184082030000127
-84.88680267,-121.33799744,0.184082030000127
-84.89971161,-121.33480072,0.184204100000215
-84.90957642,-121.33995056,0.184204100000215
-84.89794922,-121.3360672,0.184204100000215
-84.90888977,-121.33817291,0.184326170000077
-84.91120911,-121.34375,0.184326170000077
-84.91081238,-121.3327179,0.184448250000059
-84.9356308,-121.34654236,0.184448250000059
-84.88178253,-121.34104156,0.184448250000059
-84.91374207,-121.34281921,0.184570320000148
-84.90289307,-121.33020782,0.184570320000148
-84.9370575,-121.27005005,0.184692390000009
-84.88101196,-121.33374786,0.184692390000009
-84.87743378,-121.34903717,0.184692390000009
-84.90110016,-121.34522247,0.184814460000098
-84.89472961,-121.34516907,0.184814460000098
-84.90116882,-121.3368988,0.184936530000186
-84.88137054,-121.3380127,0.185058600000048
-84.88828278,-121.34329987,0.185058600000048
-84.90598297,-121.33479309,0.185180670000136
-84.88230896,-121.33979034,0.185180670000136
-84.88575745,-121.34915161,0.185180670000136
-84.8947525,-121.33393097,0.185302740000225
-84.86746216,-121.34526062,0.185302740000225
-84.89955139,-121.34269714,0.185424810000086
-84.9245224,-121.34188843,0.185424810000086
-84.94451141,-121.25186157,0.185668950000036
-84.89704132,-121.3355484,0.185668950000036
-84.91030121,-121.34042358,0.185668950000036
-84.9052887,-121.33300018,0.185668950000036
-84.88851929,-121.34044647,0.185668950000036
-84.90834808,-121.33084106,0.185791020000124
-84.87145996,-121.34883881,0.185913090000213
-84.90796661,-121.3428421,0.186035160000074
-84.88336182,-121.33804321,0.186035160000074
-84.88657379,-121.32299805,0.186035160000074
-84.9105835,-121.3394165,0.186157230000163
-84.88188171,-121.34499359,0.186279300000024
-84.93742371,-121.26811981,0.186401370000112
-84.91265869,-121.34472656,0.186401370000112
-84.94033813,-121.26622772,0.186645510000062
-84.92498779,-121.34211731,0.186645510000062
-84.90750885,-121.34130096,0.186645510000062
-84.89894104,-121.33551788,0.186645510000062
-84.88852692,-121.33242798,0.186645510000062
-84.91651917,-121.33222961,0.186767580000151
-84.94258881,-121.34719086,0.186767580000151
-84.88143158,-121.34320831,0.186767580000151
-84.91342926,-121.34398651,0.186889650000012
-84.88603973,-121.34786224,0.186889650000012
-84.94409943,-121.34673309,0.1870117200001
-84.92302704,-121.34078979,0.1870117200001
-84.91117859,-121.34365845,0.1870117200001
-84.90260315,-121.33812714,0.1870117200001
-84.89302063,-121.33280945,0.1870117200001
-84.88085938,-121.33766937,0.1870117200001
-84.8841629,-121.34378815,0.1870117200001
-84.87558746,-121.3380127,0.1870117200001
-84.87374115,-121.34903717,0.1870117200001
-84.88170624,-121.34220123,0.187133790000189
-84.87840271,-121.33609009,0.18725586000005
-84.92627716,-121.31408691,0.187377930000139
-84.88500977,-121.34855652,0.187377930000139
-84.93669128,-121.27819824,0.1875
-84.91155243,-121.33989716,0.187622070000089
-84.88826752,-121.33238983,0.187744140000177
-84.88961029,-121.33674622,0.187866210000038
-84.88072205,-121.34165192,0.187866210000038
-84.89820862,-121.33879089,0.187988280000127
-84.89251709,-121.3325119,0.187988280000127
-84.94161987,-121.26998901,0.188232420000077
-84.91905212,-121.30763245,0.188232420000077
-84.93753052,-121.26750946,0.188354500000059
-84.89338684,-121.33159637,0.188476570000148
-84.89694977,-121.33519745,0.188598640000009
-84.91512299,-121.34499359,0.188598640000009
-84.884552,-121.34674835,0.188598640000009
-84.92105865,-121.30744934,0.188720710000098
-84.88067627,-121.34262085,0.188720710000098
-84.90679169,-121.33944702,0.188842780000186
-84.92085266,-121.33789825,0.188964850000048
-84.90161133,-121.33728027,0.188964850000048
-84.91039276,-121.33631134,0.189086920000136
-84.93309784,-121.34604645,0.189086920000136
-84.90631104,-121.33116913,0.189086920000136
-84.91320801,-121.33413696,0.189208990000225
-84.88433838,-121.34522247,0.189331060000086
-84.90870667,-121.333992,0.189453130000174
-84.89138031,-121.33677673,0.189453130000174
-84.9174118,-121.33576965,0.189575200000036
-84.91436768,-121.34468079,0.189575200000036
-84.9196167,-121.33708954,0.189697270000124
-84.91303253,-121.33963013,0.189697270000124
-84.88018036,-121.3423233,0.189697270000124
-84.87802124,-121.34990692,0.189697270000124
-84.93721008,-121.26113129,0.189819340000213
-84.87702942,-121.33895874,0.189819340000213
-84.93467712,-121.2698288,0.189941410000074
-84.90061951,-121.33647156,0.189941410000074
-84.89151764,-121.33165741,0.190185550000024
-84.94827271,-121.34825897,0.190307620000112
-84.89469147,-121.33400726,0.190307620000112
-84.87648773,-121.33992767,0.190307620000112
-84.87386322,-121.34883881,0.190307620000112
-84.91985321,-121.32015991,0.190429690000201
-84.89890289,-121.33540344,0.190429690000201
-84.87634277,-121.33692169,0.190429690000201
-84.8877182,-121.33302307,0.190673830000151
-84.91159821,-121.33704376,0.190795900000012
-84.88330078,-121.34588623,0.190795900000012
-84.91782379,-121.31160736,0.19116211000005
-84.93479156,-121.34703827,0.19116211000005
-84.88089752,-121.34279633,0.19116211000005
-84.92125702,-121.30731201,0.191284180000139
-84.87805176,-121.33019257,0.191284180000139
-84.88182831,-121.34483337,0.191284180000139
-84.87551117,-121.33911133,0.191284180000139
-84.89816284,-121.33483887,0.19140625
-84.91065216,-121.33524323,0.191528320000089
-84.91018677,-121.34172821,0.191528320000089
-84.87774658,-121.33943176,0.191528320000089
-84.88297272,-121.33441162,0.191650390000177
-84.91857147,-121.3457489,0.191650390000177
-84.9163208,-121.34568024,0.191650390000177
-84.88871002,-121.340271,0.191650390000177
-84.88465118,-121.33634949,0.191772460000038
-84.87918091,-121.33953094,0.191772460000038
-84.88262939,-121.32383728,0.191772460000038
-84.91660309,-121.34468079,0.191894530000127
-84.89604187,-121.34573364,0.192016600000215
-84.89296722,-121.33264923,0.192016600000215
-84.87985992,-121.3434906,0.192016600000215
-84.87811279,-121.34368134,0.192016600000215
-84.88213348,-121.32112885,0.192260750000059
-84.91908264,-121.34499359,0.192382820000148
-84.90775299,-121.3318634,0.192382820000148
-84.87158203,-121.33644867,0.192382820000148
-84.91928101,-121.30639648,0.192504890000009
-84.9306488,-121.34310913,0.192504890000009
-84.89438629,-121.33493042,0.192626960000098
-84.87341309,-121.33374786,0.192626960000098
-84.91017914,-121.34169006,0.192749030000186
-84.87548828,-121.33907318,0.192749030000186
-84.90699005,-121.33957672,0.192871100000048
-84.89866638,-121.33406067,0.192871100000048
-84.90455627,-121.34214783,0.192871100000048
-84.93644714,-121.26373291,0.192993170000136
-84.8897171,-121.33499908,0.192993170000136
-84.87615204,-121.3495636,0.192993170000136
-84.91584778,-121.34158325,0.193115240000225
-84.88007355,-121.33647919,0.193115240000225
-84.92227173,-121.33881378,0.193237310000086
-84.91136932,-121.33570099,0.193237310000086
-84.88739777,-121.3499527,0.193237310000086
-84.89337158,-121.33537292,0.193359380000174
-84.87612915,-121.3423233,0.193359380000174
-84.93089294,-121.34308624,0.193481450000036
-84.90306854,-121.33692932,0.193481450000036
-84.89792633,-121.33351135,0.193603520000124
-84.89111328,-121.335289,0.193603520000124
-84.89640808,-121.34507751,0.193725590000213
-84.91548157,-121.33982849,0.193725590000213
-84.88155365,-121.34472656,0.193725590000213
-84.87464905,-121.34150696,0.193847660000074
-84.88018036,-121.34963989,0.193847660000074
-84.9099884,-121.34532166,0.193969730000163
-84.91980743,-121.34522247,0.193969730000163
-84.88591003,-121.34912109,0.193969730000163
-84.93757629,-121.25936127,0.194091800000024
-84.90261841,-121.33512878,0.194458010000062
-84.92633057,-121.29743958,0.194702150000012
-84.91931915,-121.33692169,0.194702150000012
-84.90820313,-121.34030914,0.194702150000012
-84.93920135,-121.34857178,0.194702150000012
-84.87432861,-121.34346771,0.194702150000012
-84.94432068,-121.25128937,0.1948242200001
-84.90891266,-121.34142303,0.1948242200001
-84.86966705,-121.34056091,0.1948242200001
-84.87486267,-121.34748077,0.1948242200001
-84.92179871,-121.34525299,0.194946290000189
-84.88342285,-121.34851074,0.194946290000189
-84.88234711,-121.32102203,0.194946290000189
-84.8759079,-121.34075928,0.19506836000005
-84.87640381,-121.34710693,0.19506836000005
-84.89324188,-121.33112335,0.195190430000139
-84.88913727,-121.33392334,0.195190430000139
-84.87909698,-121.34285736,0.195190430000139
-84.92397308,-121.33979797,0.1953125
-84.87362671,-121.34166718,0.1953125
-84.88044739,-121.34993744,0.1953125
-84.8967514,-121.33573914,0.195434570000089
-84.87758636,-121.335289,0.195434570000089
-84.93257904,-121.34432983,0.195556640000177
-84.91060638,-121.33511353,0.195556640000177
-84.89208221,-121.33576202,0.195556640000177
-84.87846375,-121.32478333,0.195556640000177
-84.87989044,-121.33692932,0.195678710000038
-84.91094971,-121.33235931,0.195678710000038
-84.88664246,-121.33357239,0.195678710000038
-84.87349701,-121.33764648,0.195678710000038
-84.87497711,-121.33068848,0.195800780000127
-84.88427734,-121.32598877,0.195800780000127
-84.89646149,-121.34420776,0.195922850000215
-84.88394928,-121.3317337,0.195922850000215
-84.87660217,-121.34249115,0.196167000000059
-84.90527344,-121.34194183,0.196167000000059
-84.91999054,-121.34664917,0.196289070000148
-84.89990234,-121.33322906,0.196289070000148
-84.92201996,-121.34545898,0.196411140000009
-84.9376297,-121.25849152,0.196533210000098
-84.91137695,-121.33409882,0.196533210000098
-84.91507721,-121.34348297,0.196533210000098
-84.9015274,-121.3370285,0.196533210000098
-84.88912964,-121.33387756,0.196533210000098
-84.875,-121.337677,0.196533210000098
-84.91574097,-121.33849335,0.196655280000186
-84.92389679,-121.34927368,0.196655280000186
-84.90381622,-121.33585358,0.196655280000186
-84.90229797,-121.33630371,0.196655280000186
-84.87683868,-121.33473206,0.196655280000186
-84.87149811,-121.33756256,0.196655280000186
-84.91068268,-121.33231354,0.196899420000136
-84.87510681,-121.34166718,0.196899420000136
-84.89824677,-121.33766174,0.197021490000225
-84.88157654,-121.34905243,0.197021490000225
-84.92929077,-121.33850861,0.197021490000225
-84.94429016,-121.25121307,0.197143560000086
-84.87687683,-121.33321381,0.197143560000086
-84.92198181,-121.33866882,0.197265630000174
-84.89846039,-121.33891296,0.197265630000174
-84.92108154,-121.34339142,0.197387700000036
-84.92417908,-121.34825134,0.197387700000036
-84.87787628,-121.34874725,0.197387700000036
-84.94082642,-121.25549316,0.197509770000124
-84.88951111,-121.33538055,0.197509770000124
-84.91213989,-121.34134674,0.197509770000124
-84.90128326,-121.33673859,0.197509770000124
-84.87782288,-121.34600067,0.197509770000124
-84.91217804,-121.33207703,0.197631840000213
-84.87259674,-121.32630157,0.197631840000213
-84.89502716,-121.33370972,0.197753910000074
-84.90049744,-121.33770752,0.197753910000074
-84.87740326,-121.3324585,0.197875980000163
-84.92118835,-121.34763336,0.197998050000024
-84.94288635,-121.34957886,0.198120120000112
-84.915802,-121.34394836,0.198120120000112
-84.90850067,-121.33770752,0.198120120000112
-84.88046265,-121.33830261,0.198120120000112
-84.87666321,-121.33992767,0.198120120000112
-84.88156128,-121.33035278,0.198242190000201
-84.87902832,-121.33905029,0.198242190000201
-84.92666626,-121.34028625,0.198364260000062
-84.92391968,-121.34796143,0.198364260000062
-84.8966217,-121.34382629,0.198486330000151
-84.91317749,-121.34243011,0.198608400000012
-84.92225647,-121.33737946,0.1987304700001
-84.87567139,-121.33912659,0.1987304700001
-84.93631744,-121.27068329,0.19897461000005
-84.89544678,-121.33944702,0.19897461000005
-84.91596222,-121.33866882,0.19897461000005
-84.90448761,-121.3375473,0.19897461000005
-84.89990997,-121.33989716,0.199096680000139
-84.8720932,-121.34607697,0.19921875
-84.94238281,-121.34927368,0.199340820000089
-84.91484833,-121.3418808,0.199340820000089
-84.89006805,-121.33457184,0.199340820000089
-84.87415314,-121.33956146,0.199340820000089
-84.90251923,-121.33647156,0.199462890000177
-84.87882233,-121.33444977,0.199462890000177
-84.92951965,-121.33840942,0.199462890000177
-84.91651917,-121.33889008,0.199584960000038
-84.88948059,-121.33531189,0.199584960000038
-84.90116882,-121.3394165,0.199584960000038
-84.88439941,-121.33187103,0.199584960000038
-84.8806076,-121.326828,0.199584960000038
-84.8928833,-121.33203888,0.199707030000127
-84.90476227,-121.33653259,0.199707030000127
-84.90969849,-121.33843994,0.199829100000215
-84.90296173,-121.33796692,0.199829100000215
-84.87667847,-121.33863068,0.199829100000215
-84.92298126,-121.33786011,0.199951170000077
-84.8942337,-121.33718872,0.199951170000077
-84.8943634,-121.34487915,0.200073250000059
-84.92761993,-121.34902191,0.200195320000148
-84.90303802,-121.33545685,0.200195320000148
-84.87297058,-121.33724213,0.200195320000148
-84.90773773,-121.33711243,0.200317390000009
-84.89990234,-121.33184814,0.200317390000009
-84.87995148,-121.33795929,0.200317390000009
-84.9052887,-121.33551788,0.200439460000098
-84.88652802,-121.33715057,0.200561530000186
-84.91757202,-121.34242249,0.200561530000186
-84.91558838,-121.33409882,0.200561530000186
-84.93473053,-121.34573364,0.200561530000186
-84.88523102,-121.33332825,0.200683600000048
-84.92076874,-121.33627319,0.200683600000048
-84.91793823,-121.33867645,0.200683600000048
-84.90177155,-121.33589935,0.200683600000048
-84.89768982,-121.33827209,0.200683600000048
-84.91932678,-121.34221649,0.200805670000136
-84.88401794,-121.34397125,0.200805670000136
-84.91242218,-121.33898926,0.200927740000225
-84.90463257,-121.34024048,0.200927740000225
-84.88066864,-121.33070374,0.201049810000086
-84.87729645,-121.33573151,0.201171880000174
-84.90229797,-121.3348999,0.201171880000174
-84.90054321,-121.33509827,0.201171880000174
-84.91609955,-121.34134674,0.201293950000036
-84.87854767,-121.3343811,0.201416020000124
-84.87857819,-121.34114075,0.201416020000124
-84.88184357,-121.34181976,0.201416020000124
-84.88176727,-121.33760071,0.201538090000213
-84.8761673,-121.34944153,0.201538090000213
-84.91896057,-121.337677,0.201660160000074
-84.88065338,-121.33347321,0.201782230000163
-84.91960907,-121.34095001,0.201782230000163
-84.9369812,-121.2604599,0.201904300000024
-84.88809967,-121.33242798,0.201904300000024
-84.90383911,-121.34118652,0.201904300000024
-84.89717865,-121.33020782,0.201904300000024
-84.87756348,-121.34159088,0.201904300000024
-84.88066101,-121.33067322,0.202026370000112
-84.93595886,-121.25554657,0.202148440000201
-84.92658234,-121.34967041,0.202148440000201
-84.89523315,-121.3286438,0.202148440000201
-84.88114929,-121.33894348,0.202148440000201
-84.88258362,-121.34098816,0.202148440000201
-84.87731171,-121.33355713,0.202392580000151
-84.91915131,-121.33940887,0.202514650000012
-84.92485809,-121.34860229,0.2026367200001
-84.90608215,-121.3412323,0.2026367200001
-84.89176178,-121.33551788,0.2026367200001
-84.88461304,-121.33203125,0.2026367200001
-84.93295288,-121.27429199,0.202758790000189
-84.89942932,-121.33026123,0.202758790000189
-84.89060974,-121.32447052,0.202758790000189
-84.87947083,-121.33637238,0.202758790000189
-84.87538147,-121.33898926,0.202758790000189
-84.91870117,-121.33763123,0.20288086000005
-84.90155029,-121.33432007,0.20288086000005
-84.89398956,-121.32807159,0.20288086000005
-84.88134766,-121.34017944,0.20288086000005
-84.87558746,-121.33248138,0.20288086000005
-84.93816376,-121.25634003,0.203002930000139
-84.93235779,-121.26776123,0.203002930000139
-84.90399933,-121.33589935,0.203002930000139
-84.89080811,-121.32595825,0.203002930000139
-84.87554169,-121.34841156,0.203002930000139
-84.93663025,-121.2686615,0.203125
-84.88273621,-121.33374786,0.203125
-84.90843964,-121.33753967,0.203125
-84.89427948,-121.32682037,0.203125
-84.92368317,-121.33827972,0.203247070000089
-84.90223694,-121.33609009,0.203247070000089
-84.89820099,-121.32945251,0.203247070000089
-84.92733765,-121.34890747,0.203369140000177
-84.90489197,-121.33917236,0.203369140000177
-84.89958191,-121.33299255,0.203369140000177
-84.88336945,-121.3392334,0.203369140000177
-84.89299011,-121.34745026,0.203491210000038
-84.92298126,-121.34451294,0.203491210000038
-84.90377808,-121.33463287,0.203491210000038
-84.87711334,-121.34779358,0.203491210000038
-84.88011169,-121.3393631,0.203613280000127
-84.94963837,-121.30426025,0.203857420000077
-84.90897369,-121.3482132,0.203979500000059
-84.87648773,-121.33808899,0.203979500000059
-84.90505219,-121.33390045,0.203979500000059
-84.8794632,-121.3363266,0.203979500000059
-84.87824249,-121.34638214,0.203979500000059
-84.92124939,-121.34342957,0.204101570000148
-84.91654968,-121.34178162,0.204101570000148
-84.87980652,-121.3408432,0.204101570000148
-84.87534332,-121.33219147,0.204101570000148
-84.92769623,-121.28350067,0.204223640000009
-84.88625336,-121.34676361,0.204223640000009
-84.90799713,-121.34353638,0.204345710000098
-84.89437103,-121.3430481,0.204345710000098
-84.90107727,-121.34052277,0.204345710000098
-84.88063812,-121.33836365,0.204345710000098
-84.87104034,-121.34130096,0.204345710000098
-84.88552856,-121.32885742,0.204467780000186
-84.89884186,-121.33242798,0.204589850000048
-84.88733673,-121.33503723,0.204711920000136
-84.93179321,-121.34224701,0.204711920000136
-84.90474701,-121.34288025,0.204711920000136
-84.88678741,-121.33354187,0.204711920000136
-84.90992737,-121.33728027,0.204833990000225
-84.90796661,-121.34397888,0.204833990000225
-84.88385773,-121.33142853,0.204833990000225
-84.90091705,-121.32972717,0.204956060000086
-84.88627625,-121.34977722,0.204956060000086
-84.8780365,-121.34938812,0.204956060000086
-84.89936066,-121.33943939,0.205078130000174
-84.87661743,-121.33844757,0.205078130000174
-84.88519287,-121.34423065,0.205078130000174
-84.87982941,-121.3358078,0.205200200000036
-84.87861633,-121.33119965,0.205200200000036
-84.88017273,-121.32904816,0.205200200000036
-84.92578125,-121.33616638,0.205200200000036
-84.87535858,-121.33889771,0.205322270000124
-84.86710358,-121.32129669,0.205322270000124
-84.92372131,-121.29756927,0.205444340000213
-84.89945221,-121.32866669,0.205444340000213
-84.87058258,-121.3394928,0.205444340000213
-84.87722015,-121.32816315,0.205566410000074
-84.8944931,-121.32700348,0.205566410000074
-84.89563751,-121.33804321,0.205688480000163
-84.88575745,-121.34197998,0.205688480000163
-84.91799927,-121.34277344,0.205810550000024
-84.88253784,-121.34087372,0.205932620000112
-84.88697052,-121.34784698,0.205932620000112
-84.87225342,-121.34178162,0.206054690000201
-84.89450073,-121.33200073,0.206054690000201
-84.88812256,-121.33149719,0.206176760000062
-84.89797211,-121.32759094,0.206176760000062
-84.8775177,-121.33368683,0.206176760000062
-84.91069031,-121.3442688,0.206298830000151
-84.89955139,-121.33289337,0.206298830000151
-84.87709808,-121.33867645,0.206298830000151
-84.89364624,-121.33724213,0.206420900000012
-84.92630005,-121.34127045,0.206420900000012
-84.89640808,-121.32953644,0.206420900000012
-84.88970947,-121.33422089,0.2065429700001
-84.88408661,-121.33666229,0.2065429700001
-84.89553833,-121.34629822,0.2065429700001
-84.92465973,-121.34545898,0.2065429700001
-84.87966919,-121.33650208,0.2065429700001
-84.87400055,-121.3260498,0.2065429700001
-84.90499878,-121.34636688,0.206665040000189
-84.89405823,-121.34477997,0.206665040000189
-84.89772797,-121.33841705,0.20678711000005
-84.91751099,-121.34221649,0.20678711000005
-84.89447784,-121.3269577,0.20678711000005
-84.91111755,-121.34023285,0.20703125
-84.92669678,-121.34426117,0.20703125
-84.91121674,-121.34326172,0.20703125
-84.92976379,-121.34210205,0.207153320000089
-84.89698029,-121.32702637,0.207153320000089
-84.89540863,-121.33097076,0.207275390000177
-84.8766098,-121.33036804,0.207275390000177
-84.88633728,-121.32228851,0.207275390000177
-84.90930176,-121.34068298,0.207397460000038
-84.90129089,-121.34068298,0.207397460000038
-84.87574005,-121.32608032,0.207397460000038
-84.89613342,-121.33692932,0.207641600000215
-84.88014221,-121.34229279,0.207641600000215
-84.90892029,-121.34441376,0.207763670000077
-84.89733887,-121.3390274,0.207763670000077
-84.88549805,-121.34165192,0.207763670000077
-84.88423157,-121.34210968,0.207763670000077
-84.93080902,-121.34837341,0.207885750000059
-84.88529205,-121.34039307,0.207885750000059
-84.89208221,-121.33341217,0.208007820000148
-84.92513275,-121.34593201,0.208007820000148
-84.90830231,-121.34013367,0.208129890000009
-84.88435364,-121.33033752,0.208129890000009
-84.87626648,-121.33283997,0.208129890000009
-84.88275909,-121.34104919,0.208129890000009
-84.93347168,-121.34319305,0.208251960000098
-84.91091919,-121.33644867,0.208251960000098
-84.91262817,-121.34551239,0.208374030000186
-84.90606689,-121.33178711,0.208374030000186
-84.87928009,-121.34017944,0.208374030000186
-84.91120148,-121.34320831,0.208496100000048
-84.88189697,-121.32875061,0.208496100000048
-84.8755188,-121.34030151,0.208618170000136
-84.88040161,-121.34963226,0.208862310000086
-84.91673279,-121.32060242,0.208984380000174
-84.92942047,-121.3445282,0.208984380000174
-84.88362122,-121.33820343,0.209106450000036
-84.90706635,-121.33930206,0.209106450000036
-84.90299225,-121.34166718,0.209106450000036
-84.87449646,-121.34100342,0.209106450000036
-84.91095734,-121.33492279,0.209228520000124
-84.88996887,-121.33424377,0.209228520000124
-84.88597107,-121.34211731,0.209228520000124
-84.87969208,-121.3429184,0.209228520000124
-84.88585663,-121.33056641,0.209350590000213
-84.90483093,-121.33097076,0.209350590000213
-84.88303375,-121.34001923,0.209350590000213
-84.9172821,-121.34062195,0.209472660000074
-84.8953476,-121.33791351,0.209472660000074
-84.87666321,-121.34356689,0.209472660000074
-84.87637329,-121.34481049,0.209472660000074
-84.89697266,-121.34102631,0.209594730000163
-84.88413239,-121.32904053,0.209594730000163
-84.87522888,-121.32575226,0.209594730000163
-84.90466309,-121.3361969,0.209716800000024
-84.9263382,-121.3466568,0.209838870000112
-84.91036987,-121.34539032,0.209838870000112
-84.90101624,-121.33258057,0.209838870000112
-84.8842926,-121.33953857,0.209838870000112
-84.87747955,-121.33357239,0.209838870000112
-84.88134766,-121.33769989,0.209838870000112
-84.89585114,-121.3368988,0.209960940000201
-84.89465332,-121.33357239,0.210083010000062
-84.89975739,-121.34078979,0.210083010000062
-84.92578888,-121.28188324,0.210205080000151
-84.89485931,-121.33737183,0.210205080000151
-84.8848877,-121.32273865,0.210327150000012
-84.93887329,-121.34555054,0.2104492200001
-84.86373901,-121.34507751,0.2104492200001
-84.87191772,-121.32711029,0.210571290000189
-84.88488007,-121.34750366,0.210571290000189
-84.88265991,-121.34706879,0.210571290000189
-84.92192078,-121.34374237,0.21069336000005
-84.89431,-121.33522797,0.21069336000005
-84.8791275,-121.34493256,0.2109375
-84.89000702,-121.33219147,0.211181640000177
-84.93560028,-121.34591675,0.211181640000177
-84.93302155,-121.34832764,0.211181640000177
-84.91628265,-121.34779358,0.211303710000038
-84.89048004,-121.33319092,0.211303710000038
-84.91809845,-121.3346405,0.211303710000038
-84.9305191,-121.28135681,0.211547850000215
-84.8854599,-121.34152222,0.211669920000077
-84.8756485,-121.34295654,0.211669920000077
-84.87670135,-121.3498764,0.211669920000077
-84.90276337,-121.33232117,0.211792000000059
-84.87831116,-121.34603882,0.211792000000059
-84.9047699,-121.33213043,0.211914070000148
-84.91998291,-121.34113312,0.212036140000009
-84.87622833,-121.33270264,0.212036140000009
-84.88237762,-121.34367371,0.212036140000009
-84.93930817,-121.34700012,0.212158210000098
-84.91433716,-121.34545135,0.212158210000098
-84.87847137,-121.32501984,0.212158210000098
-84.88352966,-121.33895111,0.212158210000098
-84.91075897,-121.34113312,0.212280280000186
-84.9063797,-121.34393311,0.212280280000186
-84.92875671,-121.34815979,0.212402350000048
-84.88654327,-121.33643341,0.212524420000136
-84.87473297,-121.34973907,0.212524420000136
-84.8964386,-121.34230042,0.212646490000225
-84.89658356,-121.33734894,0.212646490000225
-84.9348526,-121.26660919,0.212768560000086
-84.91266632,-121.34287262,0.212768560000086
-84.91825104,-121.34806061,0.212768560000086
-84.87805176,-121.3457489,0.212768560000086
-84.89360809,-121.33724976,0.212890630000174
-84.93733215,-121.25765991,0.213012700000036
-84.92076111,-121.34011841,0.213012700000036
-84.92588806,-121.28864288,0.213134770000124
-84.89504242,-121.33924103,0.213256840000213
-84.91546631,-121.34895325,0.213256840000213
-84.90588379,-121.33587646,0.213256840000213
-84.8843689,-121.34368896,0.213256840000213
-84.89672852,-121.34986877,0.213378910000074
-84.91001129,-121.33975983,0.213378910000074
-84.88350677,-121.33914948,0.213378910000074
-84.8761673,-121.34191895,0.213378910000074
-84.87441254,-121.34210968,0.213378910000074
-84.9256134,-121.34477234,0.213500980000163
-84.88258362,-121.33686829,0.213500980000163
-84.93919373,-121.25187683,0.213623050000024
-84.88787079,-121.33177185,0.213623050000024
-84.87670135,-121.33291626,0.213623050000024
-84.88857269,-121.34506989,0.213623050000024
-84.88272858,-121.34736633,0.213623050000024
-84.88207245,-121.34932709,0.213623050000024
-84.87473297,-121.34699249,0.213623050000024
-84.91623688,-121.34796143,0.213745120000112
-84.87754822,-121.34545898,0.213745120000112
-84.89911652,-121.34169006,0.213867190000201
-84.92951965,-121.34738159,0.213867190000201
-84.92514801,-121.34323883,0.213989260000062
-84.91216278,-121.34255981,0.213989260000062
-84.90538025,-121.34333801,0.213989260000062
-84.89733124,-121.33924866,0.214111330000151
-84.87187195,-121.34853363,0.214111330000151
-84.91423798,-121.3478775,0.214233400000012
-84.87272644,-121.32375336,0.214477540000189
-84.86499786,-121.34348297,0.214477540000189
-84.88510895,-121.33204651,0.21459961000005
-84.89048004,-121.33207703,0.214721680000139
-84.92098236,-121.34031677,0.21484375
-84.91750336,-121.34745789,0.214965820000089
-84.87545776,-121.34783173,0.215087890000177
-84.91052246,-121.34673309,0.215209960000038
-84.89684296,-121.33627319,0.215209960000038
-84.90986633,-121.33569336,0.215332030000127
-84.90296936,-121.34021759,0.215332030000127
-84.87467194,-121.34105682,0.215332030000127
-84.88014984,-121.34895325,0.215332030000127
-84.90561676,-121.34329987,0.215454100000215
-84.87606812,-121.34435272,0.215454100000215
-84.8808136,-121.34700012,0.215454100000215
-84.91999054,-121.33975983,0.215576170000077
-84.88300323,-121.33856201,0.215576170000077
-84.92868805,-121.2874527,0.215698250000059
-84.90766144,-121.33409882,0.215698250000059
-84.8771286,-121.33461761,0.215698250000059
-84.91293335,-121.34152985,0.215820320000148
-84.87949371,-121.34670258,0.215820320000148
-84.87351227,-121.34742737,0.215820320000148
-84.88803101,-121.33139801,0.215942390000009
-84.91628265,-121.33837891,0.215942390000009
-84.87460327,-121.34329224,0.215942390000009
-84.87036896,-121.34593201,0.215942390000009
-84.86593628,-121.34483337,0.215942390000009
-84.88523865,-121.3451004,0.216064460000098
-84.91940308,-121.34998322,0.216308600000048
-84.91618347,-121.31455231,0.216430670000136
-84.89349365,-121.34687805,0.216430670000136
-84.89173126,-121.34707642,0.216430670000136
-84.87770844,-121.34853363,0.216430670000136
-84.93987274,-121.25649261,0.216552740000225
-84.93747711,-121.26464844,0.216552740000225
-84.88887787,-121.33554077,0.216552740000225
-84.88928223,-121.32971954,0.216674810000086
-84.88977051,-121.34575653,0.216674810000086
-84.90393066,-121.34095001,0.216918950000036
-84.89151764,-121.34555054,0.216918950000036
-84.88926697,-121.34844208,0.216918950000036
-84.89759064,-121.34674072,0.217041020000124
-84.91314697,-121.3417511,0.217041020000124
-84.89514923,-121.33364868,0.217041020000124
-84.87197876,-121.32315063,0.217041020000124
-84.87140656,-121.32512665,0.217041020000124
-84.88397217,-121.34577179,0.217041020000124
-84.91297913,-121.34699249,0.217163090000213
-84.88130188,-121.34780884,0.217163090000213
-84.88063812,-121.34976959,0.217163090000213
-84.88960266,-121.34297943,0.217285160000074
-84.87275696,-121.31642151,0.217285160000074
-84.89105225,-121.34475708,0.217407230000163
-84.91004181,-121.34513855,0.217407230000163
-84.8837204,-121.3390274,0.217407230000163
-84.88844299,-121.33666229,0.217407230000163
-84.9095993,-121.33535767,0.217529300000024
-84.89318848,-121.33232117,0.217529300000024
-84.87470245,-121.32372284,0.217529300000024
-84.91821289,-121.3398819,0.217773440000201
-84.87956238,-121.33612823,0.217773440000201
-84.87853241,-121.34461212,0.217773440000201
-84.88596344,-121.34618378,0.217773440000201
-84.88722229,-121.34662628,0.217895510000062
-84.86486816,-121.34326935,0.217895510000062
-84.91824341,-121.34662628,0.218017580000151
-84.90003967,-121.33679199,0.218017580000151
-84.93347931,-121.34712219,0.218139650000012
-84.88881683,-121.34368134,0.218139650000012
-84.92314148,-121.34176636,0.218383790000189
-84.89100647,-121.32971954,0.218383790000189
-84.88038635,-121.34889984,0.218383790000189
-84.87509918,-121.32671356,0.218383790000189
-84.91336823,-121.31581879,0.21850586000005
-84.87856293,-121.34358215,0.21850586000005
-84.88770294,-121.3323822,0.218627930000139
-84.89138031,-121.32675934,0.21875
-84.89321899,-121.34654999,0.21875
-84.91306305,-121.33618164,0.218872070000089
-84.93151855,-121.34577942,0.218872070000089
-84.93460083,-121.25824738,0.218994140000177
-84.89238739,-121.33164978,0.218994140000177
-84.8782196,-121.33100891,0.218994140000177
-84.8791275,-121.34741974,0.218994140000177
-84.88806152,-121.34336853,0.219116210000038
-84.88495636,-121.34651947,0.219116210000038
-84.90908813,-121.34304047,0.219238280000127
-84.92955017,-121.3444519,0.219238280000127
-84.88513184,-121.34127045,0.219238280000127
-84.8840332,-121.34906006,0.219238280000127
-84.87867737,-121.34362793,0.219238280000127
-84.90953827,-121.33676147,0.219360350000215
-84.92088318,-121.34967804,0.219360350000215
-84.87509155,-121.33442688,0.219360350000215
-84.89263153,-121.34900665,0.219604500000059
-84.87993622,-121.3468399,0.219604500000059
-84.8915863,-121.34866333,0.219604500000059
-84.89206696,-121.33569336,0.219604500000059
-84.9094162,-121.33252716,0.219726570000148
-84.90737152,-121.34172058,0.219726570000148
-84.88858795,-121.32659912,0.219726570000148
-84.86447906,-121.34252167,0.219726570000148
-84.91966248,-121.34060669,0.219848640000009
-84.90647125,-121.33068085,0.219848640000009
-84.87619019,-121.32344055,0.219848640000009
-84.87496185,-121.34660339,0.219848640000009
-84.91590118,-121.34098816,0.219970710000098
-84.88565063,-121.32473755,0.219970710000098
-84.88217926,-121.33914185,0.220092780000186
-84.88890839,-121.34786224,0.220214850000048
-84.87091827,-121.33152008,0.220214850000048
-84.91304016,-121.33638,0.220336920000136
-84.8760376,-121.34568787,0.220336920000136
-84.86872864,-121.34612274,0.220336920000136
-84.91033936,-121.33453369,0.220458990000225
-84.91890717,-121.34031677,0.220581060000086
-84.89858246,-121.33464813,0.220581060000086
-84.87996674,-121.33779907,0.220581060000086
-84.88031006,-121.34903717,0.220581060000086
-84.87345123,-121.33058167,0.220703130000174
-84.88558197,-121.34268951,0.220825200000036
-84.92678833,-121.34406281,0.220947270000124
-84.88633728,-121.34200287,0.220947270000124
-84.87963104,-121.34497833,0.220947270000124
-84.90646362,-121.3306427,0.221069340000213
-84.89237213,-121.34895325,0.221069340000213
-84.93566895,-121.25488281,0.221191410000074
-84.91496277,-121.33866119,0.221191410000074
-84.9366684,-121.3478775,0.221191410000074
-84.88587952,-121.3249588,0.221191410000074
-84.88137817,-121.34512329,0.221191410000074
-84.90299225,-121.33751678,0.221313480000163
-84.87763214,-121.3483429,0.221435550000024
-84.88288879,-121.33148193,0.221557620000112
-84.9204483,-121.34658813,0.221557620000112
-84.88089752,-121.34755707,0.221679690000201
-84.92163086,-121.34886932,0.221801760000062
-84.88987732,-121.34835052,0.221801760000062
-84.89231873,-121.34674072,0.221801760000062
-84.88564301,-121.34545898,0.221801760000062
-84.87589264,-121.3482132,0.221801760000062
-84.90968323,-121.33120728,0.221923830000151
-84.93245697,-121.34647369,0.221923830000151
-84.91738129,-121.34848022,0.222045900000012
-84.8971405,-121.33229828,0.222045900000012
-84.86344147,-121.3407135,0.222045900000012
-84.88494873,-121.33280945,0.2221679700001
-84.92024231,-121.34506226,0.2221679700001
-84.91056824,-121.33473206,0.222290040000189
-84.87892914,-121.3227005,0.222290040000189
-84.87989044,-121.34552002,0.22241211000005
-84.8783493,-121.34590912,0.222534180000139
-84.87320709,-121.31620789,0.222534180000139
-84.86882019,-121.31448364,0.222534180000139
-84.91880798,-121.34275055,0.22265625
-84.88188171,-121.32324982,0.222778320000089
-84.88249207,-121.33483887,0.222778320000089
-84.88989258,-121.33202362,0.222900390000177
-84.9196701,-121.33925629,0.223022460000038
-84.89037323,-121.33804321,0.223144530000127
-84.88034821,-121.32496643,0.223144530000127
-84.87354279,-121.3345108,0.223144530000127
-84.87097168,-121.32891846,0.223144530000127
-84.86525726,-121.34362793,0.223144530000127
-84.92627716,-121.34371948,0.223266600000215
-84.91007233,-121.3421936,0.223266600000215
-84.91642761,-121.34664917,0.223266600000215
-84.87700653,-121.34732056,0.223266600000215
-84.91555023,-121.33511353,0.223388670000077
-84.90914154,-121.33215332,0.223388670000077
-84.88239288,-121.32377625,0.223388670000077
-84.88358307,-121.3286972,0.223510750000059
-84.92920685,-121.34580994,0.223510750000059
-84.87770081,-121.33737946,0.223510750000059
-84.88239288,-121.34925079,0.223510750000059
-84.88038635,-121.33921814,0.223632820000148
-84.87973022,-121.34803772,0.223632820000148
-84.88217926,-121.32901764,0.223632820000148
-84.89347839,-121.32862091,0.223876960000098
-84.88414001,-121.32357025,0.223876960000098
-84.87683868,-121.32508087,0.223876960000098
-84.88256836,-121.32563782,0.223876960000098
-84.89212799,-121.34735107,0.223999030000186
-84.88536072,-121.34812927,0.223999030000186
-84.88332367,-121.34906006,0.223999030000186
-84.87386322,-121.33223724,0.223999030000186
-84.90033722,-121.33309174,0.224121100000048
-84.89581299,-121.34970856,0.224121100000048
-84.88748169,-121.34539032,0.224243170000136
-84.87193298,-121.34217072,0.224243170000136
-84.9356308,-121.34824371,0.224487310000086
-84.91616821,-121.34635925,0.224487310000086
-84.88482666,-121.34884644,0.224487310000086
-84.89196777,-121.33228302,0.224731450000036
-84.88179779,-121.32597351,0.224731450000036
-84.87641144,-121.33805084,0.224731450000036
-84.87168884,-121.32939148,0.224731450000036
-84.87706757,-121.32530975,0.224853520000124
-84.88575745,-121.34284973,0.224975590000213
-84.87065125,-121.34909821,0.224975590000213
-84.92005157,-121.34220886,0.225097660000074
-84.88894653,-121.34494781,0.225097660000074
-84.86947632,-121.32781219,0.225097660000074
-84.88200378,-121.32746124,0.225219730000163
-84.90795898,-121.33431244,0.225341800000024
-84.88993835,-121.33113861,0.225341800000024
-84.88768768,-121.33135223,0.225341800000024
-84.87702179,-121.33408356,0.225341800000024
-84.92845917,-121.34522247,0.225341800000024
-84.90714264,-121.3390274,0.225341800000024
-84.88008118,-121.3404007,0.225341800000024
-84.93229675,-121.25847626,0.225463870000112
-84.88456726,-121.32527924,0.225463870000112
-84.88481903,-121.34880829,0.225463870000112
-84.88378906,-121.34953308,0.225463870000112
-84.88511658,-121.347229,0.225463870000112
-84.86889648,-121.34922028,0.225463870000112
-84.88863373,-121.33924103,0.225463870000112
-84.88707733,-121.34136963,0.225585940000201
-84.93331909,-121.27078247,0.225708010000062
-84.91007233,-121.34111023,0.225708010000062
-84.89286041,-121.34755707,0.225708010000062
-84.88240814,-121.34024811,0.225708010000062
-84.8644104,-121.34586334,0.225708010000062
-84.8673172,-121.31468201,0.225708010000062
-84.93881226,-121.2517395,0.225830080000151
-84.92408752,-121.34081268,0.225830080000151
-84.89566803,-121.32987976,0.225952150000012
-84.88807678,-121.32488251,0.225952150000012
-84.87911224,-121.3440094,0.225952150000012
-84.91674042,-121.3358078,0.2260742200001
-84.89102173,-121.32672119,0.2260742200001
-84.91690063,-121.33856201,0.226196290000189
-84.89420319,-121.32881927,0.226196290000189
-84.88372803,-121.33960724,0.226196290000189
-84.90815735,-121.33827972,0.22631836000005
-84.87229156,-121.33361053,0.22631836000005
-84.8920517,-121.34879303,0.22631836000005
-84.93161011,-121.26751709,0.2265625
-84.92011261,-121.34767151,0.2265625
-84.88556671,-121.34503174,0.2265625
-84.89208221,-121.33167267,0.226684570000089
-84.90300751,-121.3348465,0.226684570000089
-84.8713913,-121.34992981,0.226684570000089
-84.88594055,-121.34455109,0.226806640000177
-84.8718338,-121.33207703,0.226806640000177
-84.88629913,-121.34880829,0.226928710000038
-84.88826752,-121.32634735,0.227050780000127
-84.88696289,-121.32805634,0.227050780000127
-84.87645721,-121.34632111,0.227050780000127
-84.86604309,-121.3480072,0.227050780000127
-84.92510223,-121.28289795,0.227172850000215
-84.91568756,-121.34474945,0.227172850000215
-84.88961029,-121.34690857,0.227172850000215
-84.90879059,-121.33838654,0.227417000000059
-84.88027191,-121.3458786,0.227417000000059
-84.93093109,-121.3452301,0.227539070000148
-84.86908722,-121.33146667,0.227539070000148
-84.86873627,-121.34898376,0.227539070000148
-84.89089203,-121.3443985,0.227661140000009
-84.92733002,-121.34835815,0.227661140000009
-84.87242889,-121.3363266,0.227661140000009
-84.91658783,-121.31938934,0.227905280000186
-84.91667938,-121.33724976,0.227905280000186
-84.86753082,-121.33315277,0.228027350000048
-84.88516235,-121.34452057,0.228027350000048
-84.89665985,-121.32933807,0.228149420000136
-84.88613892,-121.33000183,0.228149420000136
-84.87294769,-121.33557892,0.228149420000136
-84.92417908,-121.34499359,0.228271490000225
-84.88394165,-121.32842255,0.228271490000225
-84.86976624,-121.33347321,0.228271490000225
-84.92610168,-121.34754944,0.228393560000086
-84.8795166,-121.34129333,0.228393560000086
-84.88735962,-121.34654999,0.228393560000086
-84.88491058,-121.3449707,0.228393560000086
-84.87283325,-121.33155823,0.228515630000174
-84.88706207,-121.33339691,0.228637700000036
-84.91620636,-121.34371948,0.228637700000036
-84.87193298,-121.33602905,0.228637700000036
-84.88459015,-121.32846069,0.228637700000036
-84.93260193,-121.27233887,0.228759770000124
-84.9367981,-121.34912872,0.228759770000124
-84.8912735,-121.34915924,0.228759770000124
-84.86943054,-121.34705353,0.228759770000124
-84.92086792,-121.30439758,0.228881840000213
-84.909729,-121.33558655,0.228881840000213
-84.88944244,-121.32833099,0.228881840000213
-84.92086792,-121.33860016,0.229003910000074
-84.88996124,-121.32733917,0.229003910000074
-84.86385345,-121.34461212,0.229003910000074
-84.92545319,-121.28096008,0.229125980000163
-84.88220215,-121.33336639,0.229125980000163
-84.92030334,-121.34082794,0.229125980000163
-84.92900085,-121.34261322,0.229248050000024
-84.90766907,-121.33666229,0.229248050000024
-84.90254211,-121.33299255,0.229370120000112
-84.88606262,-121.3431015,0.229370120000112
-84.93708038,-121.25707245,0.229492190000201
-84.90596008,-121.33535004,0.229492190000201
-84.8783493,-121.34551239,0.229492190000201
-84.87097931,-121.34667969,0.229492190000201
-84.92703247,-121.34127808,0.229614260000062
-84.89048767,-121.32633209,0.229736330000151
-84.86898041,-121.33413696,0.229858400000012
-84.88477325,-121.34375763,0.229858400000012
-84.87229919,-121.33487701,0.2299804700001
-84.94793701,-121.3444519,0.2299804700001
-84.89084625,-121.33058929,0.2299804700001
-84.89055634,-121.33183289,0.2299804700001
-84.87999725,-121.34149933,0.2299804700001
-84.88166046,-121.34406281,0.2299804700001
-84.89566803,-121.32849121,0.230102540000189
-84.89440155,-121.32894897,0.230102540000189
-84.88538361,-121.32940674,0.230102540000189
-84.87698364,-121.32637787,0.230102540000189
-84.87351227,-121.3330307,0.230102540000189
-84.89810944,-121.33032227,0.23022461000005
-84.89077759,-121.33538055,0.230346680000139
-84.91574097,-121.34214783,0.230346680000139
-84.88484955,-121.34615326,0.230346680000139
-84.87428284,-121.32453918,0.230346680000139
-84.92008209,-121.33953094,0.23046875
-84.92366791,-121.3443985,0.23046875
-84.88729858,-121.34773254,0.23046875
-84.8794632,-121.34246826,0.23046875
-84.87358093,-121.33851624,0.23046875
-84.88365936,-121.32833862,0.230590820000089
-84.86950684,-121.32512665,0.230590820000089
-84.86643982,-121.33503723,0.230590820000089
-84.89163208,-121.32470703,0.230712890000177
-84.9135437,-121.34056091,0.230712890000177
-84.92803192,-121.34879303,0.230712890000177
-84.86856842,-121.3230896,0.230712890000177
-84.8867569,-121.34442902,0.230712890000177
-84.87992096,-121.34515381,0.230712890000177
-84.8786087,-121.32843018,0.230834960000038
-84.94834137,-121.34744263,0.230834960000038
-84.87725067,-121.34088135,0.230834960000038
-84.8712616,-121.33293152,0.230834960000038
-84.87502289,-121.34375763,0.230834960000038
-84.8809967,-121.34100342,0.230957030000127
-84.88214111,-121.34255981,0.230957030000127
-84.88954926,-121.34915161,0.231079100000215
-84.86721039,-121.33405304,0.231079100000215
-84.87198639,-121.32543945,0.231079100000215
-84.86968994,-121.33461761,0.231323250000059
-84.93196106,-121.33033752,0.231323250000059
-84.89394379,-121.32737732,0.231567390000009
-84.87280273,-121.33145905,0.231567390000009
-84.92904663,-121.34803772,0.231689460000098
-84.89205933,-121.33132172,0.231689460000098
-84.87156677,-121.33065796,0.231689460000098
-84.87039185,-121.32836914,0.231689460000098
-84.87441254,-121.34548187,0.231689460000098
-84.86263275,-121.3453064,0.231689460000098
-84.88191986,-121.33332062,0.231811530000186
-84.90675354,-121.33702087,0.231811530000186
-84.87268829,-121.33319092,0.231933600000048
-84.86856079,-121.32305145,0.231933600000048
-84.88394928,-121.34221649,0.231933600000048
-84.92427063,-121.34085846,0.232055670000136
-84.92468262,-121.34362793,0.232177740000225
-84.89761353,-121.32974243,0.232177740000225
-84.87934875,-121.3259201,0.232299810000086
-84.89080048,-121.3355484,0.232299810000086
-84.9225769,-121.34655762,0.232299810000086
-84.89322662,-121.33360291,0.232299810000086
-84.87277985,-121.33943939,0.232299810000086
-84.91364288,-121.3213501,0.232421880000174
-84.88758087,-121.33110809,0.232421880000174
-84.90621185,-121.33425903,0.232421880000174
-84.90351868,-121.33242035,0.232421880000174
-84.87596893,-121.34153748,0.232421880000174
-84.88453674,-121.34732819,0.232421880000174
-84.86440277,-121.34545135,0.232421880000174
-84.90766144,-121.3417511,0.232543950000036
-84.93042755,-121.34355164,0.232543950000036
-84.88237762,-121.32872772,0.232543950000036
-84.87143707,-121.3343811,0.232543950000036
-84.86592865,-121.33470917,0.232543950000036
-84.8761673,-121.3350296,0.232666020000124
-84.90814972,-121.34777832,0.232788090000213
-84.87963104,-121.34414673,0.232788090000213
-84.87796021,-121.34226227,0.232788090000213
-84.91329956,-121.32958221,0.232910160000074
-84.87796783,-121.32557678,0.232910160000074
-84.87670135,-121.32627869,0.232910160000074
-84.87615967,-121.34303284,0.232910160000074
-84.8837738,-121.34497833,0.232910160000074
-84.9103775,-121.33688354,0.233032230000163
-84.90229034,-121.33161163,0.233032230000163
-84.89739227,-121.32845306,0.233154300000024
-84.86914063,-121.33554077,0.233154300000024
-84.94761658,-121.34558105,0.233276370000112
-84.92707062,-121.34667206,0.233276370000112
-84.92825317,-121.34896088,0.233398440000201
-84.87090302,-121.33534241,0.233398440000201
-84.90554047,-121.34139252,0.233520510000062
-84.87203979,-121.33087158,0.233520510000062
-84.88500977,-121.34754944,0.233642580000151
-84.88465118,-121.34355164,0.233642580000151
-84.88269806,-121.33103943,0.233764650000012
-84.8752594,-121.33207703,0.233764650000012
-84.89582825,-121.32987976,0.233764650000012
-84.94989777,-121.34438324,0.234008790000189
-84.86869049,-121.34581757,0.234008790000189
-84.91918182,-121.34288025,0.23413086000005
-84.92726135,-121.3483963,0.23413086000005
-84.8759079,-121.33473206,0.23413086000005
-84.8744812,-121.32466888,0.23413086000005
-84.87167358,-121.32657623,0.23413086000005
-84.86962128,-121.34989929,0.23413086000005
-84.87265778,-121.33310699,0.234252930000139
-84.93950653,-121.34828949,0.234252930000139
-84.8970871,-121.32939911,0.234252930000139
-84.87992859,-121.33223724,0.234252930000139
-84.92656708,-121.34636688,0.234375
-84.89798737,-121.33267975,0.234375
-84.89391327,-121.3272934,0.234375
-84.89517212,-121.33483887,0.234375
-84.89602661,-121.33135986,0.234497070000089
-84.88900757,-121.33188629,0.234497070000089
-84.8879776,-121.32940674,0.234619140000177
-84.93212891,-121.34454346,0.234619140000177
-84.9253006,-121.34681702,0.234619140000177
-84.89916992,-121.33470917,0.234619140000177
-84.87892914,-121.32630157,0.234619140000177
-84.86611176,-121.33615112,0.234619140000177
-84.85848236,-121.34501648,0.234619140000177
-84.92717743,-121.34262085,0.234741210000038
-84.89607239,-121.33010101,0.234741210000038
-84.8737793,-121.32288361,0.234741210000038
-84.88224792,-121.34262848,0.234741210000038
-84.88111877,-121.34429169,0.234741210000038
-84.87181091,-121.34456635,0.234741210000038
-84.92807007,-121.34615326,0.234863280000127
-84.9039917,-121.33261108,0.234863280000127
-84.8764801,-121.32446289,0.234863280000127
-84.87439728,-121.3348999,0.234863280000127
-84.87579346,-121.34187317,0.234863280000127
-84.91345978,-121.32180786,0.234985350000215
-84.88374329,-121.34796906,0.234985350000215
-84.87052155,-121.33101654,0.234985350000215
-84.8969574,-121.33336639,0.235107420000077
-84.87780762,-121.34526062,0.235229500000059
-84.91867065,-121.3425827,0.235351570000148
-84.88800812,-121.33132172,0.235473640000009
-84.87201691,-121.33080292,0.235473640000009
-84.87001801,-121.33875275,0.235473640000009
-84.8854599,-121.32962799,0.235595710000098
-84.90474701,-121.3318634,0.235595710000098
-84.87071991,-121.340271,0.235595710000098
-84.87776947,-121.33071136,0.235717780000186
-84.93975067,-121.34825134,0.235717780000186
-84.8864975,-121.33152008,0.235717780000186
-84.87712097,-121.33547211,0.235717780000186
-84.87918854,-121.3469162,0.235717780000186
-84.93186188,-121.34449005,0.235839850000048
-84.92778015,-121.34710693,0.235839850000048
