"X","Y","Z"
-85.03221893,-121.35404968,0.150024410000015
-85.0243988,-121.38027191,0.150024410000015
-85.02509308,-121.35900879,0.150146480000103
-85.00125122,-121.3972702,0.150146480000103
-85.00765228,-121.35539246,0.150268549999964
-85.02736664,-121.35217285,0.150390620000053
-85.03334808,-121.40080261,0.150390620000053
-85.04902649,-121.43090057,0.150512690000141
-85.01129913,-121.4133606,0.150634760000003
-85.006073,-121.36203003,0.150634760000003
-85.02028656,-121.35041809,0.150878910000074
-85.04920959,-121.43240356,0.150878910000074
-85.03179932,-121.4367981,0.150878910000074
-85.01235962,-121.38996887,0.151367189999974
-85.02155304,-121.37882233,0.151367189999974
-85.02465057,-121.42897034,0.151489260000062
-85.02480316,-121.36872101,0.151733400000012
-85.0280838,-121.3948822,0.151733400000012
-85.0200119,-121.42433929,0.151733400000012
-85.03426361,-121.44100952,0.151733400000012
-85.01551819,-121.36305237,0.1518554700001
-85.00657654,-121.41132355,0.151977539999962
-85.03214264,-121.36717987,0.15209961000005
-85.02739716,-121.35244751,0.152221680000139
-85.03543091,-121.40701294,0.152221680000139
-85.03088379,-121.3518219,0.152221680000139
-85.03093719,-121.43875885,0.15234375
-85.01069641,-121.41208649,0.152465820000089
-85.03588104,-121.35964203,0.15258788999995
-85.02690887,-121.38777924,0.15258788999995
-85.02806091,-121.39238739,0.152709960000038
-85.03404999,-121.39913177,0.152709960000038
-85.02440643,-121.37795258,0.152832030000127
-85.01152802,-121.35346985,0.152832030000127
-85.01780701,-121.36950684,0.152954099999988
-85.01828003,-121.42447662,0.152954099999988
-85.01692963,-121.35894775,0.152954099999988
-85.00750732,-121.40724945,0.153076170000077
-85.04569244,-121.42688751,0.153076170000077
-85.02583313,-121.36512756,0.153198239999938
-85.03649902,-121.35192871,0.153198239999938
-85.01730347,-121.37940979,0.153320310000026
-85.04989624,-121.42446136,0.153320310000026
-85.03588104,-121.40480042,0.153320310000026
-85.02767944,-121.35249329,0.153442380000115
-85.04392242,-121.41773224,0.153808589999926
-85.02166748,-121.42951965,0.153808589999926
-85.03501892,-121.40650177,0.154052730000103
-85.02317047,-121.37522125,0.154174799999964
-85.04975128,-121.4362793,0.154174799999964
-85.01963043,-121.37243652,0.154296870000053
-85.00179291,-121.40162659,0.154418940000141
-85.02391815,-121.35687256,0.154418940000141
-85.03736115,-121.35552979,0.154541010000003
-85.02256012,-121.42810059,0.154541010000003
-85.00007629,-121.35719299,0.154541010000003
-85.02944946,-121.3915329,0.154907229999935
-85.04141235,-121.35083771,0.155029300000024
-85.0326004,-121.44119263,0.155273439999974
-85.04728699,-121.42027283,0.155395510000062
-85.02146912,-121.37129974,0.155517580000151
-85.03794861,-121.35355377,0.156127930000139
-85.02549744,-121.3660965,0.156127930000139
-85.03089905,-121.35455322,0.156982420000077
-85.04911804,-121.42320251,0.157104489999938
-85.04582214,-121.4236908,0.157226560000026
-85.01193237,-121.35984039,0.157226560000026
-85.03980255,-121.41094208,0.157592770000065
-85.01413727,-121.35630798,0.157592770000065
-85.03691101,-121.43704224,0.157592770000065
-85.0065918,-121.35260773,0.157714839999926
-85.00710297,-121.40792084,0.157836910000015
-85.01203156,-121.44136047,0.158203120000053
-85.01286316,-121.36118317,0.158447260000003
-85.01998901,-121.37277985,0.158813479999935
-85.02310944,-121.42920685,0.158813479999935
-85.02912903,-121.38755035,0.159057620000112
-85.01316071,-121.39408875,0.159179689999974
-85.04878235,-121.42520905,0.159301760000062
-85.03984833,-121.4109726,0.159301760000062
-85.04830933,-121.41841125,0.159423830000151
-85.03695679,-121.39996338,0.159545900000012
-85.03296661,-121.35475922,0.1596679700001
-85.00234985,-121.36276245,0.1596679700001
-85.04798126,-121.35218048,0.159790039999962
-85.03250885,-121.44100189,0.160034180000139
-85.03939819,-121.40743256,0.16015625
-85.01332855,-121.35923767,0.160522460000038
-85.03294373,-121.39087677,0.160644530000127
-85.04814911,-121.42417908,0.160888670000077
-85.04522705,-121.41667938,0.161010739999938
-85.02480316,-121.39364624,0.161132810000026
-85.01746368,-121.40257263,0.161376949999976
-85.0437088,-121.41079712,0.161743160000015
-85.04878235,-121.41345978,0.161987299999964
-85.0140686,-121.41449738,0.161987299999964
-85.01206207,-121.35691071,0.162353510000003
-85.00946808,-121.35452271,0.162353510000003
-85.01403809,-121.35035706,0.162475589999985
-85.03101349,-121.38749695,0.162719729999935
-85.04035187,-121.40277863,0.162719729999935
-85.01805878,-121.40059662,0.162841800000024
-85.02657318,-121.43154144,0.162841800000024
-85.02942657,-121.3821106,0.163085939999974
-85.01956177,-121.38697815,0.163330080000151
-85.01750946,-121.44226074,0.163330080000151
-85.03839111,-121.40564728,0.163452150000012
-85.04312897,-121.43778992,0.163452150000012
-85.03172302,-121.43972778,0.1635742200001
-85.006073,-121.35816193,0.1635742200001
-85.01891327,-121.35198212,0.16381836000005
-85.04457855,-121.40689087,0.163940430000139
-85.04087067,-121.40634918,0.1640625
-85.01145935,-121.41030884,0.164184570000089
-85.04911804,-121.42305756,0.164794920000077
-85.01374817,-121.39962769,0.164916989999938
-85.00108337,-121.42958832,0.165039060000026
-85.03777313,-121.40461731,0.165039060000026
-85.00935364,-121.40794373,0.165161130000115
-85.02822113,-121.38076782,0.165283199999976
-85.02555084,-121.43274689,0.165405270000065
-85.04486084,-121.40718842,0.165527339999926
-85.04026031,-121.40506744,0.165649410000015
-85.01673126,-121.35539246,0.165649410000015
-85.03029633,-121.37239838,0.165771480000103
-85.0458374,-121.41403961,0.165893549999964
-85.04000854,-121.4020462,0.166015620000053
-85.03723145,-121.35536194,0.166259760000003
-85.02438354,-121.39430237,0.166381839999985
-85.01599884,-121.40804291,0.166503910000074
-85.0490799,-121.35360718,0.166503910000074
-85.00203705,-121.35018921,0.166625979999935
-85.0213089,-121.36573029,0.167114260000062
-85.02050018,-121.40885925,0.167358400000012
-85.03045654,-121.38024902,0.167358400000012
-85.04180145,-121.40220642,0.167358400000012
-85.04788208,-121.4174881,0.1674804700001
-85.03826141,-121.39942932,0.167846680000139
-85.00489044,-121.40283203,0.16796875
-85.03875732,-121.40599823,0.16821288999995
-85.02944946,-121.37579346,0.168579099999988
-85.02713776,-121.37198639,0.168823239999938
-85.03095245,-121.38105774,0.168823239999938
-85.01399994,-121.35581207,0.169067380000115
-85.03833008,-121.39920807,0.169311520000065
-85.00621796,-121.41887665,0.170043940000141
-85.02696228,-121.37174225,0.170410160000074
-85.04106903,-121.40621185,0.170410160000074
-85.03476715,-121.3633728,0.170532229999935
-85.00978851,-121.43855286,0.170776370000112
-85.0300827,-121.38327789,0.170776370000112
-85.04081726,-121.40319061,0.170898439999974
-85.04663849,-121.41544342,0.171020510000062
-85.00756073,-121.44773102,0.171142580000151
-85.0115509,-121.43228912,0.1713867200001
-85.03714752,-121.36257172,0.171752930000139
-85.00614166,-121.36151123,0.171875
-85.02104187,-121.36477661,0.17211913999995
-85.01222992,-121.42086029,0.172485349999988
-85.00708771,-121.423172,0.173217770000065
-85.03050232,-121.36132813,0.173339839999926
-85.03533173,-121.39427185,0.173461910000015
-85.04225159,-121.40534973,0.173828120000053
-85.04065704,-121.35868073,0.174194339999985
-85.03199005,-121.38598633,0.174194339999985
-85.0251236,-121.39076996,0.174316410000074
-85.0463028,-121.41822052,0.175048830000151
-85.04637909,-121.4365387,0.175170900000012
-85.03206635,-121.37268829,0.1752929700001
-85.04965973,-121.42024994,0.175415039999962
-85.01306915,-121.35568237,0.17553711000005
-85.01052856,-121.35095978,0.17553711000005
-85.00778198,-121.42906952,0.175659180000139
-85.04865265,-121.43647766,0.175659180000139
-85.009758,-121.43862152,0.17578125
-85.02934265,-121.3755188,0.176147460000038
-85.02404785,-121.36959076,0.176269530000127
-85.04045105,-121.42932129,0.176269530000127
-85.04067993,-121.35884857,0.176391599999988
-85.03742981,-121.3974762,0.176391599999988
-85.04361725,-121.43710327,0.176513670000077
-85.01599884,-121.35391998,0.176513670000077
-85.02693939,-121.37786102,0.177001949999976
-85.02458954,-121.3920517,0.177124020000065
-85.04541016,-121.44326782,0.177124020000065
-85.03948975,-121.40994263,0.177124020000065
-85.04402924,-121.43538666,0.177490230000103
-85.00009155,-121.44004059,0.177734370000053
-85.04669189,-121.42407227,0.177856440000141
-85.03811646,-121.39881134,0.177856440000141
-85.03256989,-121.37886047,0.177978510000003
-85.03560638,-121.38282013,0.177978510000003
-85.01628113,-121.3542099,0.178222660000074
-85.02674103,-121.37133789,0.178344729999935
-85.04187775,-121.43447876,0.178588870000112
-85.03063965,-121.3782196,0.178710939999974
-85.00283813,-121.43737793,0.178833010000062
-85.04889679,-121.42501068,0.178833010000062
-85.04373932,-121.41407013,0.178955080000151
-85.04476929,-121.43621826,0.178955080000151
-85.04644012,-121.41477966,0.179077150000012
-85.04160309,-121.42871094,0.17944336000005
-85.03058624,-121.37718201,0.1796875
-85.01989746,-121.36631012,0.1796875
-85.03771973,-121.39505005,0.1796875
-85.03000641,-121.41024017,0.1796875
-85.01455688,-121.35434723,0.179809570000089
-85.04466248,-121.40914154,0.17993163999995
-85.02771759,-121.37870789,0.17993163999995
-85.02259827,-121.36727905,0.180297849999988
-85.03925323,-121.43029022,0.180297849999988
-85.02706909,-121.38323212,0.180541989999938
-85.04324341,-121.43386841,0.180541989999938
-85.04062653,-121.39980316,0.180541989999938
-85.01927185,-121.40222168,0.180664060000026
-85.03186035,-121.38169098,0.181396480000103
-85.00473785,-121.44786072,0.181762690000141
-85.01992798,-121.35732269,0.182373050000024
-85.00789642,-121.44461823,0.182495120000112
-85.0292511,-121.38269806,0.182617189999974
-85.01445007,-121.35388947,0.1831054700001
-85.00183868,-121.44992828,0.18334961000005
-85.0139389,-121.42211914,0.183471680000139
-85.00218964,-121.43936157,0.183959960000038
-85.03919983,-121.39723969,0.184326170000077
-85.00372314,-121.35556793,0.184326170000077
-85.04968262,-121.41410828,0.184448239999938
-85.02828979,-121.37957764,0.184448239999938
-85.00321198,-121.44551086,0.184692380000115
-85.00878906,-121.44046021,0.186035160000074
-85.00827789,-121.35417175,0.186279300000024
-85.02947998,-121.37819672,0.186889650000012
-85.01258087,-121.35080719,0.187866210000038
-85.00196838,-121.35858917,0.188598630000115
-85.04779816,-121.40776062,0.188842770000065
-85.02082825,-121.36125183,0.188964839999926
-85.04219818,-121.39604187,0.188964839999926
-85.00559235,-121.35484314,0.189819339999985
-85.02555084,-121.36865997,0.189941410000074
-85.00067139,-121.44454193,0.190429689999974
-85.0036087,-121.35238647,0.190429689999974
-85.03798676,-121.38645172,0.190795900000012
-85.00334167,-121.44393158,0.19165038999995
-85.02288818,-121.36170197,0.19165038999995
-85.00169373,-121.35855865,0.191894530000127
-85.04656219,-121.40570831,0.192260739999938
-85.04701233,-121.40975952,0.192626949999976
-85.01157379,-121.35011292,0.192749020000065
-85.04569244,-121.40113831,0.193115230000103
-85.03028107,-121.37384796,0.193725589999985
-85.04421234,-121.40180969,0.19555663999995
-85.0093689,-121.35067749,0.196533199999976
-85.00312042,-121.35539246,0.196533199999976
-85.02059937,-121.35784149,0.197021480000103
-85.03018951,-121.37640381,0.197265620000053
-85.03691101,-121.38697052,0.197875979999935
-85.01885223,-121.35521698,0.198852539999962
-85.03556824,-121.38211823,0.19897461000005
-85.04257202,-121.44988251,0.199096680000139
-85.04367065,-121.40057373,0.199340820000089
-85.04785156,-121.40490723,0.19946288999995
-85.0296936,-121.43182373,0.199584960000038
-85.00650787,-121.39816284,0.200317380000115
-85.04592896,-121.40426636,0.200561520000065
-85.02941895,-121.37489319,0.200805660000015
-85.04753113,-121.40692902,0.202148439999974
-85.00740814,-121.3539505,0.202270510000062
-85.02999878,-121.42938995,0.20336913999995
-85.03395844,-121.38205719,0.203491210000038
-85.01988983,-121.35662842,0.203613280000127
-85.0306015,-121.37377167,0.203735349999988
-85.0477829,-121.40447235,0.204223630000115
-85.01421356,-121.40709686,0.204223630000115
-85.01200867,-121.35556793,0.205566410000074
-85.01960754,-121.3586731,0.207885739999938
-85.03655243,-121.38308716,0.208618160000015
-85.0114975,-121.35559082,0.208862299999964
-85.02409363,-121.36306,0.209594729999935
-85.03978729,-121.39116669,0.212158199999976
-85.0438385,-121.40026855,0.212158199999976
-85.01953125,-121.35549164,0.213378910000074
-85.02867126,-121.37024689,0.213623050000024
-85.03787231,-121.39405823,0.214233400000012
-85.0434494,-121.4030304,0.2143554700001
-85.04257965,-121.40445709,0.2143554700001
-85.02983093,-121.37212372,0.21508788999995
-85.02366638,-121.36489105,0.216918940000141
-85.0286026,-121.37580872,0.217041010000003
-85.0419693,-121.39743805,0.217529300000024
-85.02655792,-121.36688995,0.217773439999974
-85.02929688,-121.37689209,0.2182617200001
-85.02394104,-121.36544037,0.218627930000139
-85.01499939,-121.35140228,0.21875
-85.02818298,-121.37229919,0.219116210000038
-85.03494263,-121.38588715,0.220458980000103
-85.02137756,-121.36102295,0.222045900000012
-85.03920746,-121.38977051,0.2221679700001
-85.04634857,-121.40763855,0.22241211000005
-85.0490799,-121.41214752,0.224853510000003
-85.00147247,-121.44731903,0.226440430000139
-85.02242279,-121.36543274,0.226440430000139
-85.00115204,-121.3550415,0.22680663999995
-85.02133942,-121.36386871,0.227905270000065
-85.02805328,-121.3744278,0.228271480000103
-85.03672028,-121.38865662,0.228271480000103
-85.04886627,-121.42298126,0.229125979999935
-85.00274658,-121.4499588,0.230590820000089
-85.04799652,-121.4156723,0.231323239999938
-85.03884888,-121.39163208,0.231445310000026
-85.02902985,-121.37606049,0.231567380000115
-85.02570343,-121.36779022,0.232788089999985
-85.03540039,-121.40116882,0.233398439999974
-85.03289795,-121.38217163,0.234252930000139
-85.0251236,-121.37278748,0.234741210000038
-85.02288055,-121.36309052,0.235229489999938
-85.0401535,-121.41510773,0.235473630000115
-85.02073669,-121.36871338,0.236938479999935
-85.01895142,-121.36280823,0.237304689999974
-85.01656342,-121.3678894,0.237548830000151
-85.04473114,-121.42804718,0.237915039999962
-85.01969147,-121.36965179,0.237915039999962
-85.02060699,-121.37725067,0.23803711000005
-85.02889252,-121.39698029,0.239135739999938
-85.01416016,-121.35771179,0.239746089999926
-85.01255035,-121.37342834,0.243530270000065
