"X","Y","Z"
-84.93621826,-121.38311768,0.450073250000059
-84.94438171,-121.36940002,0.450317390000009
-84.92890167,-121.37754059,0.450561530000186
-84.94019318,-121.38394928,0.450683600000048
-84.93933868,-121.38513184,0.450683600000048
-84.9380188,-121.35971069,0.450805670000136
-84.92735291,-121.38143158,0.450805670000136
-84.92694092,-121.36660767,0.450927740000225
-84.93225861,-121.38282776,0.451171880000174
-84.93202972,-121.37954712,0.451416020000124
-84.94338989,-121.36470032,0.451538090000213
-84.91867065,-121.3530426,0.451538090000213
-84.93939972,-121.36270905,0.451660160000074
-84.91848755,-121.37949371,0.451660160000074
-84.92546844,-121.35407257,0.451660160000074
-84.93475342,-121.36367035,0.451904300000024
-84.93969727,-121.35121155,0.452026370000112
-84.94957733,-121.38947296,0.452026370000112
-84.9389267,-121.38462067,0.452148440000201
-84.94364166,-121.36164093,0.452514650000012
-84.9271698,-121.37792969,0.4526367200001
-84.93810272,-121.38581848,0.4526367200001
-84.92051697,-121.37966919,0.452758790000189
-84.93299866,-121.38365936,0.45288086000005
-84.92273712,-121.37709045,0.453002930000139
-84.93668365,-121.37844086,0.453125
-84.94116974,-121.38204956,0.453125
-84.93769073,-121.36070251,0.453369140000177
-84.92056274,-121.3761673,0.453369140000177
-84.9329834,-121.36013031,0.453735350000215
-84.94882202,-121.35469818,0.453735350000215
-84.93676758,-121.38722992,0.453735350000215
-84.9352417,-121.36119843,0.453857420000077
-84.93878937,-121.36479187,0.454223640000009
-84.945961,-121.37223816,0.454345710000098
-84.94233704,-121.38366699,0.454589850000048
-84.93327332,-121.38420868,0.454589850000048
-84.91766357,-121.35315704,0.454589850000048
-84.94509888,-121.35353851,0.454833990000225
-84.94313812,-121.35221863,0.455078130000174
-84.91899872,-121.37757874,0.455078130000174
-84.91993713,-121.37515259,0.455200200000036
-84.9152832,-121.37703705,0.455200200000036
-84.94577789,-121.36092377,0.455200200000036
-84.94156647,-121.37081146,0.455322270000124
-84.93572998,-121.38191223,0.455322270000124
-84.947052,-121.38806915,0.455566410000074
-84.93878937,-121.38140106,0.455688480000163
-84.93509674,-121.38687897,0.455810550000024
-84.94111633,-121.36499786,0.456054690000201
-84.92305756,-121.37741089,0.456054690000201
-84.91481781,-121.37375641,0.456298830000151
-84.93914032,-121.36283875,0.456420900000012
-84.94992828,-121.39006042,0.4565429700001
-84.9275589,-121.36369324,0.45678711000005
-84.93688202,-121.3837738,0.45678711000005
-84.93505096,-121.37837219,0.456909180000139
-84.93927002,-121.38220978,0.456909180000139
-84.93157196,-121.38436127,0.456909180000139
-84.91934204,-121.37413025,0.457397460000038
-84.94586182,-121.35729218,0.457641600000215
-84.94171906,-121.36302185,0.457763670000077
-84.94110107,-121.3723526,0.457763670000077
-84.93968964,-121.36062622,0.457885750000059
-84.93016815,-121.36155701,0.458251960000098
-84.93250275,-121.38269806,0.458374030000186
-84.94407654,-121.35263824,0.458618170000136
-84.92066193,-121.37374878,0.458618170000136
-84.92137146,-121.37756348,0.458618170000136
-84.92714691,-121.38079071,0.459106450000036
-84.94207764,-121.36850739,0.459228520000124
-84.94824219,-121.35549927,0.459228520000124
-84.91716766,-121.37699127,0.459228520000124
-84.93753815,-121.37960052,0.459350590000213
-84.9342804,-121.37960052,0.459350590000213
-84.94831848,-121.35273743,0.459594730000163
-84.93315125,-121.38127136,0.459594730000163
-84.93578339,-121.36647034,0.459838870000112
-84.94682312,-121.35704803,0.460083010000062
-84.93119049,-121.380867,0.460205080000151
-84.94528961,-121.35336304,0.460571290000189
-84.94719696,-121.38815308,0.460571290000189
-84.93028259,-121.3609314,0.46069336000005
-84.92008972,-121.37548828,0.46069336000005
-84.91784668,-121.37531281,0.46069336000005
-84.93824768,-121.38067627,0.460815430000139
-84.93386078,-121.37908173,0.4609375
-84.94296265,-121.36544037,0.461059570000089
-84.92722321,-121.37756348,0.461181640000177
-84.93604279,-121.36533356,0.461547850000215
-84.93814087,-121.36564636,0.461792000000059
-84.92411041,-121.37581635,0.461792000000059
-84.92256165,-121.37644958,0.461792000000059
-84.9438324,-121.35124207,0.462768560000086
-84.93876648,-121.38124847,0.462768560000086
-84.9496994,-121.35620117,0.463134770000124
-84.94676971,-121.35307312,0.463378910000074
-84.93514252,-121.36109161,0.463867190000201
-84.92041016,-121.37580872,0.463867190000201
-84.93282318,-121.35977173,0.463989260000062
-84.92582703,-121.36914063,0.463989260000062
-84.94837189,-121.35999298,0.463989260000062
-84.91416931,-121.37883759,0.464233400000012
-84.92874146,-121.3659668,0.4643554700001
-84.92755127,-121.37789154,0.46459961000005
-84.93618774,-121.37982178,0.46484375
-84.93067169,-121.37989807,0.465209960000038
-84.92088318,-121.37361145,0.465454100000215
-84.93971252,-121.35980988,0.465576170000077
-84.92198944,-121.37245178,0.465698250000059
-84.94422913,-121.38648987,0.465942390000009
-84.9388504,-121.38156128,0.466186530000186
-84.94599915,-121.38638306,0.466186530000186
-84.93760681,-121.38472748,0.466430670000136
-84.93335724,-121.38137817,0.466674810000086
-84.92751312,-121.35308838,0.466674810000086
-84.93186188,-121.36266327,0.467041020000124
-84.94676971,-121.35169983,0.467041020000124
-84.92884064,-121.36533356,0.467163090000213
-84.91223907,-121.36945343,0.467285160000074
-84.94386292,-121.38548279,0.467529300000024
-84.92156982,-121.37220001,0.467651370000112
-84.94400024,-121.36087799,0.467773440000201
-84.93325806,-121.36694336,0.467773440000201
-84.93708038,-121.36077118,0.468139650000012
-84.92642975,-121.36605072,0.468139650000012
-84.92675781,-121.37661743,0.468139650000012
-84.9491806,-121.3884201,0.46850586000005
-84.92944336,-121.36335754,0.468627930000139
-84.94644928,-121.36901855,0.46875
-84.93100739,-121.38023376,0.46875
-84.92408752,-121.37567139,0.46875
-84.93476868,-121.36199188,0.468872070000089
-84.939888,-121.38543701,0.468872070000089
-84.93209076,-121.37931061,0.468994140000177
-84.94432068,-121.38654327,0.468994140000177
-84.93501282,-121.38054657,0.469116210000038
-84.94522095,-121.38487244,0.469482420000077
-84.9418869,-121.38585663,0.469848640000009
-84.93110657,-121.36525726,0.469970710000098
-84.93215179,-121.37908173,0.470214850000048
-84.94967651,-121.3859787,0.470336920000136
-84.94789124,-121.38633728,0.470336920000136
-84.94670868,-121.36788177,0.470458990000225
-84.92378998,-121.36573029,0.470581060000086
-84.94290161,-121.36431122,0.470825200000036
-84.92955017,-121.36273956,0.470825200000036
-84.94017792,-121.38574219,0.470825200000036
-84.94393921,-121.38905334,0.470947270000124
-84.94525146,-121.36457825,0.471069340000213
-84.94281006,-121.37249756,0.471069340000213
-84.94373322,-121.38526917,0.471069340000213
-84.92349243,-121.3713913,0.471069340000213
-84.94770813,-121.35208893,0.471313480000163
-84.93821716,-121.38535309,0.471435550000024
-84.92878723,-121.35604095,0.471435550000024
-84.94574738,-121.35076904,0.471557620000112
-84.92684937,-121.37368011,0.471923830000151
-84.92549133,-121.35054016,0.472045900000012
-84.91281891,-121.36730957,0.472534180000139
-84.94399261,-121.38907623,0.47265625
-84.92906952,-121.37461853,0.472900390000177
-84.94599152,-121.3859787,0.472900390000177
-84.94273376,-121.36476898,0.473144530000127
-84.91822052,-121.37226868,0.473266600000215
-84.93656921,-121.36221313,0.473388670000077
-84.92735291,-121.36206818,0.473510750000059
-84.94219971,-121.35134125,0.473510750000059
-84.93222046,-121.3793869,0.473510750000059
-84.93737793,-121.38406372,0.473510750000059
-84.94242096,-121.35842896,0.473632820000148
-84.94036865,-121.36575317,0.473632820000148
-84.92936707,-121.36318207,0.473632820000148
-84.93868256,-121.36251831,0.473754890000009
-84.93238831,-121.36049652,0.473754890000009
-84.94580078,-121.3710022,0.474121100000048
-84.94846344,-121.38694,0.474121100000048
-84.92314148,-121.37391663,0.474121100000048
-84.91915131,-121.3768692,0.474121100000048
-84.94425964,-121.38937378,0.474243170000136
-84.93875122,-121.38619232,0.474365240000225
-84.92093658,-121.37325287,0.474365240000225
-84.94315338,-121.38452911,0.474609380000174
-84.93338776,-121.3809967,0.474609380000174
-84.94332123,-121.36279297,0.474975590000213
-84.92121887,-121.37654877,0.475585940000201
-84.93869781,-121.36270142,0.475708010000062
-84.94712067,-121.35317993,0.475708010000062
-84.93634033,-121.3624115,0.475952150000012
-84.93945313,-121.38426208,0.475952150000012
-84.92919159,-121.3636322,0.4760742200001
-84.89465332,-121.35121918,0.4760742200001
-84.93409729,-121.38208008,0.4760742200001
-84.92809296,-121.37558746,0.476196290000189
-84.92160797,-121.37181854,0.476196290000189
-84.94217682,-121.3509903,0.4765625
-84.94429779,-121.38339233,0.4765625
-84.93701172,-121.38356781,0.4765625
-84.94210052,-121.3859787,0.476806640000177
-84.92677307,-121.36434937,0.477050780000127
-84.92037201,-121.37525177,0.477172850000215
-84.94338226,-121.36192322,0.477294920000077
-84.93332672,-121.35659027,0.477417000000059
-84.89729309,-121.35426331,0.477417000000059
-84.94122314,-121.36260986,0.477783210000098
-84.9384079,-121.3854599,0.477905280000186
-84.93480682,-121.35987091,0.477905280000186
-84.9145813,-121.37281036,0.478393560000086
-84.92681885,-121.3735199,0.478515630000174
-84.93215179,-121.37921143,0.478759770000124
-84.9405899,-121.38363647,0.478881840000213
-84.92105865,-121.3735733,0.478881840000213
-84.91838837,-121.37561798,0.479003910000074
-84.92832184,-121.36573029,0.479370120000112
-84.93379211,-121.36382294,0.479614260000062
-84.94683838,-121.35279083,0.479614260000062
-84.92909241,-121.37696838,0.479614260000062
-84.94390106,-121.35093689,0.479736330000151
-84.93695068,-121.36060333,0.479858400000012
-84.89749908,-121.35443115,0.48022461000005
-84.94064331,-121.36363983,0.48046875
-84.91956329,-121.37097931,0.480712890000177
-84.93808746,-121.36363983,0.480957030000127
-84.93256378,-121.35916901,0.480957030000127
-84.9344635,-121.37941742,0.480957030000127
-84.90377045,-121.36135864,0.481201170000077
-84.91291809,-121.37271881,0.481445320000148
-84.94959259,-121.38091278,0.481567390000009
-84.915802,-121.37445068,0.481567390000009
-84.93724823,-121.35842133,0.481811530000186
-84.91533661,-121.37091064,0.481811530000186
-84.94358826,-121.360672,0.481933600000048
-84.92402649,-121.37535858,0.482055670000136
-84.91934967,-121.35193634,0.482055670000136
-84.90310669,-121.35829926,0.482177740000225
-84.92539978,-121.3739624,0.482299810000086
-84.94004822,-121.38239288,0.482421880000174
-84.93005371,-121.37558746,0.482543950000036
-84.92894745,-121.35855103,0.482543950000036
-84.93184662,-121.35337067,0.482788090000213
-84.90696716,-121.3624115,0.482788090000213
-84.93460083,-121.36045074,0.483032230000163
-84.9189682,-121.37297058,0.483032230000163
-84.94967651,-121.39118958,0.483520510000062
-84.9156189,-121.37120819,0.483642580000151
-84.9404068,-121.36508942,0.483764650000012
-84.94120026,-121.38426208,0.4838867200001
-84.92521667,-121.37373352,0.484008790000189
-84.9447937,-121.3865509,0.484252930000139
-84.912323,-121.36869812,0.484252930000139
-84.93032837,-121.37589264,0.484375
-84.93746185,-121.36567688,0.484497070000089
-84.91654968,-121.37255096,0.484863280000127
-84.92622375,-121.36569214,0.485107420000077
-84.94081879,-121.36341858,0.485229500000059
-84.91700745,-121.37008667,0.485351570000148
-84.93476105,-121.36006927,0.485595710000098
-84.92503357,-121.37348175,0.485595710000098
-84.94571686,-121.38815308,0.485717780000186
-84.94036102,-121.38297272,0.485961920000136
-84.91281128,-121.36952209,0.485961920000136
-84.93486786,-121.37953186,0.486206060000086
-84.91906738,-121.37301636,0.486206060000086
-84.89849091,-121.35250092,0.486572270000124
-84.92746735,-121.37168121,0.486694340000213
-84.94194031,-121.35903931,0.486938480000163
-84.94599152,-121.38844299,0.486938480000163
-84.92397308,-121.36353302,0.487060550000024
-84.94908905,-121.39044189,0.487060550000024
-84.92398834,-121.37167358,0.487548830000151
-84.94499207,-121.35296631,0.487670900000012
-84.93846893,-121.38234711,0.48803711000005
-84.92707825,-121.37091827,0.48828125
-84.94223785,-121.38565826,0.488525390000177
-84.94821167,-121.35353851,0.488647460000038
-84.94448853,-121.35266876,0.488647460000038
-84.92878723,-121.35607147,0.488891600000215
-84.91571808,-121.36824799,0.488891600000215
-84.93937683,-121.38394165,0.488891600000215
-84.94123077,-121.36062622,0.489135750000059
-84.93057251,-121.3550415,0.489257820000148
-84.9209137,-121.37320709,0.489379890000009
-84.93495941,-121.35957336,0.489624030000186
-84.91873932,-121.37229919,0.489746100000048
-84.91536713,-121.37052917,0.489868170000136
-84.9364624,-121.36106873,0.490112310000086
-84.90763855,-121.35468292,0.490356450000036
-84.94117737,-121.3838501,0.490356450000036
-84.93453979,-121.36042786,0.490600590000213
-84.93197632,-121.36044312,0.490722660000074
-84.94104004,-121.35024261,0.490722660000074
-84.91966248,-121.37364197,0.490722660000074
-84.92275238,-121.37287903,0.491088870000112
-84.94232941,-121.38571167,0.491577150000012
-84.94094849,-121.36186981,0.4916992200001
-84.92253876,-121.36936188,0.4916992200001
-84.9285965,-121.35649872,0.491821290000189
-84.92031097,-121.37255859,0.491821290000189
-84.93634033,-121.37898254,0.491821290000189
-84.93167114,-121.37460327,0.491821290000189
-84.92556763,-121.35285187,0.491821290000189
-84.94835663,-121.38896179,0.492065430000139
-84.92970276,-121.35932922,0.4921875
-84.92001343,-121.36924744,0.492431640000177
-84.91989136,-121.37142181,0.492431640000177
-84.92524719,-121.37033844,0.492553710000038
-84.94812012,-121.38593292,0.492675780000127
-84.93881989,-121.38294983,0.492675780000127
-84.92346954,-121.37071228,0.492919920000077
-84.91837311,-121.36994934,0.493164070000148
-84.92991638,-121.37497711,0.493164070000148
-84.93283844,-121.37621307,0.493286140000009
-84.9250412,-121.3703537,0.494140630000174
-84.93692017,-121.35852051,0.494262700000036
-84.93013763,-121.35787201,0.494384770000124
-84.93096924,-121.36306763,0.494384770000124
-84.94481659,-121.35662079,0.494384770000124
-84.93933105,-121.38350677,0.494506840000213
-84.94667816,-121.35254669,0.494628910000074
-84.93489075,-121.37940979,0.494628910000074
-84.94281769,-121.36238098,0.494750980000163
-84.94962311,-121.35439301,0.494750980000163
-84.91288757,-121.37216187,0.494873050000024
-84.92386627,-121.35334778,0.494873050000024
-84.93820953,-121.36231232,0.494995120000112
-84.92446899,-121.3740921,0.495117190000201
-84.92755127,-121.37406921,0.495239260000062
-84.94243622,-121.38578033,0.495361330000151
-84.9392395,-121.35028076,0.495483400000012
-84.92700958,-121.36126709,0.495971680000139
-84.92710876,-121.35578156,0.495971680000139
-84.9434433,-121.35163879,0.496337890000177
-84.93473053,-121.37892151,0.496459960000038
-84.92957306,-121.37449646,0.496704100000215
-84.94246674,-121.38606262,0.497070320000148
-84.94019318,-121.35099792,0.497314460000098
-84.94142914,-121.38672638,0.497314460000098
-84.93827057,-121.36144257,0.497436530000186
-84.94828033,-121.38577271,0.497680670000136
-84.94625854,-121.35627747,0.497680670000136
-84.93457031,-121.35962677,0.497802740000225
-84.92803192,-121.35767365,0.497924810000086
-84.91634369,-121.36147308,0.497924810000086
-84.93003845,-121.37531281,0.497924810000086
-84.93344116,-121.35050201,0.498168950000036
-84.93520355,-121.35030365,0.498413090000213
-84.92919159,-121.35034943,0.498657230000163
-84.93698883,-121.3578186,0.498779300000024
-84.94213867,-121.38780975,0.498779300000024
-84.93343353,-121.3542099,0.498901370000112
-84.93917084,-121.36707306,0.498901370000112
-84.91539764,-121.3704071,0.498901370000112
-84.93891144,-121.35140228,0.499023440000201
-84.91838074,-121.35198975,0.499023440000201
-84.9247818,-121.37265778,0.499267580000151
-84.93920135,-121.35861206,0.499389650000012
-84.93994904,-121.38715363,0.499389650000012
-84.93476868,-121.35823822,0.49975586000005
-84.93831635,-121.37924957,0.49975586000005
-84.91587067,-121.35188293,0.5
-84.91921234,-121.36475372,0.5
-84.91970825,-121.3735199,0.5
-84.91149902,-121.35549164,0.500122070000089
-84.93347931,-121.38037872,0.500122070000089
-84.94235992,-121.3855896,0.500366210000038
-84.91214752,-121.37419128,0.500610350000215
-84.94632721,-121.35948944,0.500976570000148
-84.93022919,-121.35733795,0.501220710000098
-84.93885803,-121.38256836,0.501220710000098
-84.94402313,-121.3565979,0.501342780000186
-84.93933868,-121.38612366,0.501464850000048
-84.92328644,-121.37007141,0.501708990000225
-84.92059326,-121.36936188,0.501708990000225
-84.94075012,-121.36125946,0.501953130000174
-84.93650818,-121.35932159,0.502075200000036
-84.93184662,-121.35205841,0.502441410000074
-84.91799927,-121.36263275,0.502441410000074
-84.94129181,-121.38404083,0.502441410000074
-84.94022369,-121.38494873,0.502441410000074
-84.93405151,-121.3533783,0.502563480000163
-84.93058777,-121.35540771,0.502807620000112
-84.93917084,-121.3551712,0.502807620000112
-84.92491913,-121.35887909,0.502929690000201
-84.94326782,-121.35442352,0.502929690000201
-84.94178772,-121.36508179,0.503051760000062
-84.94023132,-121.35391235,0.503173830000151
-84.93872833,-121.38510132,0.5034179700001
-84.93872833,-121.3552475,0.50366211000005
-84.93939972,-121.38941956,0.50366211000005
-84.93318176,-121.38240814,0.50366211000005
-84.91246033,-121.37149811,0.50366211000005
-84.94139099,-121.38657379,0.503784180000139
-84.91510773,-121.36971283,0.50390625
-84.93704987,-121.35709381,0.504028320000089
-84.93183136,-121.35201263,0.504028320000089
-84.92537689,-121.37328339,0.504028320000089
-84.93306732,-121.35510254,0.504150390000177
-84.91896057,-121.36334991,0.504150390000177
-84.94748688,-121.35894775,0.504150390000177
-84.94003296,-121.38170624,0.504272460000038
-84.92066956,-121.36614227,0.504272460000038
-84.94893646,-121.35653687,0.504760750000059
-84.94268036,-121.35659027,0.504760750000059
-84.91293335,-121.36904907,0.504760750000059
-84.91895294,-121.37227631,0.504760750000059
-84.92089844,-121.36992645,0.505004890000009
-84.91584778,-121.3705368,0.505371100000048
-84.94515991,-121.35690308,0.505493170000136
-84.92630005,-121.35569763,0.505493170000136
-84.94171143,-121.38964081,0.505737310000086
-84.92051697,-121.37191772,0.505981450000036
-84.94145203,-121.35865021,0.506103520000124
-84.94013977,-121.38424683,0.506225590000213
-84.93910217,-121.36705017,0.506347660000074
-84.91677094,-121.36045074,0.506591800000024
-84.92655182,-121.36122894,0.506591800000024
-84.93325806,-121.35295105,0.5073242200001
-84.93450928,-121.35849762,0.50756836000005
-84.94983673,-121.35848236,0.50756836000005
-84.92147827,-121.37026978,0.508178710000038
-84.94093323,-121.3599472,0.508422850000215
-84.93099213,-121.36123657,0.508544920000077
-84.91892242,-121.36295319,0.508667000000059
-84.92651367,-121.35559082,0.508667000000059
-84.91687775,-121.35636902,0.508911140000009
-84.93702698,-121.35716248,0.509033210000098
-84.92977905,-121.35788727,0.509155280000186
-84.92414856,-121.35559845,0.509277350000048
-84.93434143,-121.35897064,0.509521490000225
-84.93244934,-121.35604095,0.509643560000086
-84.91886902,-121.35616302,0.509765630000174
-84.93538666,-121.38868713,0.509765630000174
-84.9391098,-121.35740662,0.511108400000012
-84.92404175,-121.35053253,0.511108400000012
-84.91513062,-121.36605835,0.5112304700001
-84.9183197,-121.35733795,0.51147461000005
-84.9253006,-121.35003662,0.511840820000089
-84.94303131,-121.39134216,0.512207030000127
-84.93578339,-121.36112213,0.512329100000215
-84.93609619,-121.3840332,0.512817390000009
-84.9207077,-121.36012268,0.512939460000098
-84.92678833,-121.35755157,0.513305670000136
-84.93891144,-121.35392761,0.513671880000174
-84.92523956,-121.35923767,0.513671880000174
-84.92662048,-121.35476685,0.514038090000213
-84.92645264,-121.3680191,0.514160160000074
-84.93669891,-121.35231781,0.514770510000062
-84.92220306,-121.35984802,0.514892580000151
-84.9251709,-121.36042023,0.515991210000038
-84.93083954,-121.35507202,0.516601570000148
-84.92813873,-121.36123657,0.516723640000009
-84.91773224,-121.35778046,0.516723640000009
-84.92588806,-121.36087799,0.517700200000036
-84.93405151,-121.35588074,0.518188480000163
-84.93322754,-121.35782623,0.518920900000012
-84.94896698,-121.39515686,0.518920900000012
-84.9469986,-121.39476013,0.51928711000005
-84.9471817,-121.38324738,0.520263670000077
-84.94687653,-121.39704132,0.520996100000048
-84.94841766,-121.39691925,0.521972660000074
-84.94817352,-121.39389038,0.522338870000112
-84.9478302,-121.39565277,0.524047850000215
-84.94271851,-121.39048767,0.524292000000059
-84.94631958,-121.39604187,0.524780280000186
-84.93689728,-121.36547089,0.526000980000163
-84.94941711,-121.39230347,0.526245120000112
-84.93579102,-121.36891937,0.526611330000151
-84.94638824,-121.39582062,0.526611330000151
-84.94700623,-121.36174774,0.527465820000089
-84.94319153,-121.37909698,0.528686530000186
-84.9487915,-121.36026001,0.528930670000136
-84.94658661,-121.3878479,0.528930670000136
-84.94709778,-121.3884201,0.530639650000012
-84.94338226,-121.39440155,0.530883790000189
-84.94490814,-121.37905121,0.531982420000077
-84.94508362,-121.36553192,0.532348640000009
-84.94772339,-121.36884308,0.533203130000174
-84.94145203,-121.39427948,0.533203130000174
-84.94896698,-121.39135742,0.533569340000213
-84.93987274,-121.38915253,0.533813480000163
-84.94864655,-121.37059784,0.534057620000112
-84.94770813,-121.36881256,0.534179690000201
-84.94963837,-121.38941956,0.534301760000062
-84.94702148,-121.36676025,0.53491211000005
-84.9419632,-121.39485168,0.53491211000005
-84.94125366,-121.39128113,0.535278320000089
-84.94539642,-121.37795258,0.535522460000038
-84.94882202,-121.38030243,0.536132820000148
-84.94068146,-121.39276886,0.536743170000136
-84.94109344,-121.39080048,0.537109380000174
-84.94995117,-121.38379669,0.537231450000036
-84.94291687,-121.39019775,0.537719730000163
-84.94728088,-121.38066101,0.5385742200001
-84.94261932,-121.37750244,0.538940430000139
-84.94496155,-121.39337921,0.538940430000139
-84.94712067,-121.36959839,0.540039070000148
-84.94827271,-121.39015198,0.540405280000186
-84.94374084,-121.38095856,0.541381840000213
-84.94682312,-121.39359283,0.542846680000139
-84.94436646,-121.38391876,0.543457030000127
-84.94451141,-121.36161804,0.543701170000077
-84.94618225,-121.36618042,0.544067390000009
-84.94682312,-121.38784027,0.544433600000048
-84.94644165,-121.3928299,0.544555670000136
-84.94648743,-121.37167358,0.545043950000036
-84.94976044,-121.38935089,0.545776370000112
-84.94248962,-121.38928223,0.546020510000062
-84.94447327,-121.38995361,0.546752930000139
-84.94683075,-121.36782837,0.547973640000009
-84.94625854,-121.38684845,0.548217780000186
-84.94850922,-121.38703156,0.548461920000136
-84.94631958,-121.38989258,0.549682620000112
-84.94429016,-121.36843872,0.549926760000062
