"X","Y","Z"
-84.84320068,-121.40265656,0.0902099600000383
-84.84120941,-121.40276337,0.0908203200001481
-84.8374176,-121.39994812,0.0909423900000093
-84.84348297,-121.40621185,0.0919189500000357
-84.84239197,-121.40737915,0.0919189500000357
-84.84648895,-121.41049957,0.0947265700001481
-84.84181213,-121.4063797,0.0949707100000978
-84.84777069,-121.39591217,0.0950927800001864
-84.83807373,-121.40660095,0.0963134800001626
-84.84120178,-121.40535736,0.0970459000000119
-84.84754181,-121.39431763,0.0975341800001388
-84.84973145,-121.39584351,0.0993652400002247
-84.84844208,-121.41323853,0.0997314500000357
-84.847229,-121.39547729,0.100097660000074
-84.84555817,-121.41175842,0.100097660000074
-84.842453,-121.38829803,0.100708010000062
-84.849617,-121.40028381,0.100952150000012
-84.84990692,-121.38152313,0.1010742200001
-84.84876251,-121.41629791,0.10131836000005
-84.84477234,-121.41323853,0.102783210000098
-84.84963226,-121.4052124,0.103393560000086
-84.84909058,-121.40615845,0.104370120000112
-84.846138,-121.40402985,0.105346680000139
-84.8483429,-121.39550781,0.10546875
-84.83992004,-121.40914154,0.105712890000177
-84.83892822,-121.3867569,0.106201170000077
-84.84036255,-121.38903809,0.106567390000009
-84.84992218,-121.40260315,0.107055670000136
-84.84400177,-121.41525269,0.107055670000136
-84.84779358,-121.40651703,0.107421880000174
-84.84938812,-121.40332031,0.107543950000036
-84.83638763,-121.40689087,0.107666020000124
-84.84776306,-121.38372803,0.107910160000074
-84.84954071,-121.40631104,0.107910160000074
-84.84723663,-121.39894867,0.108276370000112
-84.84771729,-121.38494873,0.108642580000151
-84.84757996,-121.40496826,0.108642580000151
-84.84526062,-121.39913177,0.1088867200001
-84.849617,-121.40351868,0.10913086000005
-84.83486938,-121.40453339,0.109252930000139
-84.84092712,-121.41053009,0.109497070000089
-84.83831024,-121.38910675,0.109985350000215
-84.84922028,-121.40746307,0.110717780000186
-84.84661865,-121.40287018,0.110839850000048
-84.84095001,-121.41081238,0.110961920000136
-84.83535767,-121.40534973,0.110961920000136
-84.83577728,-121.38973999,0.111206060000086
-84.84777832,-121.38211823,0.111328130000174
-84.83972168,-121.39938354,0.111328130000174
-84.84915161,-121.39230347,0.111572270000124
-84.84712982,-121.39118195,0.111816410000074
-84.83898926,-121.41066742,0.112060550000024
-84.83601379,-121.38996124,0.112548830000151
-84.83995819,-121.39933777,0.112548830000151
-84.84900665,-121.3821106,0.112915040000189
-84.83881378,-121.41042328,0.113525390000177
-84.8447876,-121.40421295,0.113769530000127
-84.84375763,-121.4145813,0.113769530000127
-84.84989166,-121.39842987,0.114379890000009
-84.84546661,-121.40619659,0.114868170000136
-84.83843231,-121.3914566,0.114868170000136
-84.84664154,-121.38522339,0.114990240000225
-84.84113312,-121.41339111,0.115112310000086
-84.84810638,-121.40953064,0.115234380000174
-84.84375,-121.40487671,0.115356450000036
-84.84026337,-121.38873291,0.115966800000024
-84.84670258,-121.38292694,0.116088870000112
-84.82778931,-121.41110229,0.116088870000112
-84.84467316,-121.40714264,0.116210940000201
-84.84809875,-121.40924835,0.116210940000201
-84.84586334,-121.40892792,0.116210940000201
-84.84928131,-121.41152954,0.116333010000062
-84.83828735,-121.39540863,0.116455080000151
-84.84496307,-121.41947937,0.116455080000151
-84.82933044,-121.40772247,0.116577150000012
-84.82582092,-121.41094971,0.1166992200001
-84.84873962,-121.41249847,0.116821290000189
-84.83657074,-121.39408875,0.11694336000005
-84.83135986,-121.41390228,0.11694336000005
-84.84604645,-121.41065979,0.117065430000139
-84.82360077,-121.41078949,0.117431640000177
-84.83142853,-121.41641998,0.117431640000177
-84.8351593,-121.41069794,0.117919920000077
-84.83898926,-121.40413666,0.118042000000059
-84.82811737,-121.41416168,0.118042000000059
-84.84941101,-121.38345337,0.118164070000148
-84.84285736,-121.40825653,0.118164070000148
-84.83097076,-121.41014099,0.119018560000086
-84.8236618,-121.41056824,0.119018560000086
-84.8479538,-121.41314697,0.119140630000174
-84.84066772,-121.38237762,0.119262700000036
-84.84822845,-121.41214752,0.119384770000124
-84.83946991,-121.41708374,0.119384770000124
-84.84779358,-121.39585114,0.119506840000213
-84.84574127,-121.41156769,0.119506840000213
-84.82720947,-121.41034698,0.119628910000074
-84.83885956,-121.39981842,0.119873050000024
-84.83522797,-121.41374969,0.119873050000024
-84.84832764,-121.38536072,0.119995120000112
-84.84059906,-121.40788269,0.120117190000201
-84.83957672,-121.40834045,0.120117190000201
-84.8446579,-121.42476654,0.120117190000201
-84.83807373,-121.40077972,0.120361330000151
-84.84909821,-121.38436127,0.120727540000189
-84.84912109,-121.41513824,0.120727540000189
-84.84223938,-121.42384338,0.120727540000189
-84.84874725,-121.43063354,0.12109375
-84.84422302,-121.41171265,0.121337890000177
-84.83630371,-121.40093994,0.121337890000177
-84.83940125,-121.40579224,0.121582030000127
-84.84837341,-121.4145813,0.121704100000215
-84.84855652,-121.41632843,0.121948250000059
-84.83625031,-121.4176178,0.121948250000059
-84.84394073,-121.38864899,0.122070320000148
-84.83943939,-121.40003204,0.122192390000009
-84.84944153,-121.39897919,0.122314460000098
-84.83564758,-121.40540314,0.122314460000098
-84.8473587,-121.38324738,0.122436530000186
-84.82978058,-121.41385651,0.122436530000186
-84.84716797,-121.39791107,0.122558600000048
-84.84094238,-121.42201233,0.122558600000048
-84.84515381,-121.39678955,0.122680670000136
-84.83804321,-121.39698029,0.122924810000086
-84.84028625,-121.40878296,0.122924810000086
-84.84513092,-121.41368103,0.123168950000036
-84.83576202,-121.40161896,0.123168950000036
-84.8356781,-121.39634705,0.123413090000213
-84.8397522,-121.4019928,0.123413090000213
-84.83875275,-121.42160034,0.123535160000074
-84.83233643,-121.39096832,0.123779300000024
-84.83930969,-121.39996338,0.123901370000112
-84.84615326,-121.42971039,0.124023440000201
-84.84046936,-121.39643097,0.124145510000062
-84.84512329,-121.41365051,0.124145510000062
-84.83625031,-121.39383698,0.124145510000062
-84.84191132,-121.39969635,0.124267580000151
-84.84899139,-121.41777039,0.124267580000151
-84.84391022,-121.38881683,0.1245117200001
-84.84629822,-121.4159317,0.1245117200001
-84.83577728,-121.40057373,0.124633790000189
-84.84388733,-121.4128418,0.124877930000139
-84.84712982,-121.39781952,0.125
-84.84729767,-121.42830658,0.125
-84.84911346,-121.39996338,0.125122070000089
-84.84182739,-121.39124298,0.125122070000089
-84.83898926,-121.40940857,0.125122070000089
-84.83791351,-121.42005157,0.125122070000089
-84.83409882,-121.41750336,0.125244140000177
-84.84625244,-121.41713715,0.125488280000127
-84.84532166,-121.42816925,0.125488280000127
-84.84439087,-121.39938354,0.125854500000059
-84.8463974,-121.38886261,0.125854500000059
-84.83943939,-121.4108963,0.125976570000148
-84.84799194,-121.41718292,0.126220710000098
-84.8431015,-121.41351318,0.126342780000186
-84.84689331,-121.42781067,0.126708990000225
-84.83525848,-121.40798187,0.127075200000036
-84.83640289,-121.41770935,0.127197270000124
-84.82723999,-121.40997314,0.127685550000024
-84.83331299,-121.40638733,0.127807620000112
-84.8401413,-121.41162109,0.127807620000112
-84.84660339,-121.39909363,0.128051760000062
-84.83998108,-121.42050934,0.128051760000062
-84.83438873,-121.4180603,0.128051760000062
-84.82705688,-121.41248322,0.128295900000012
-84.84542084,-121.38699341,0.128540040000189
-84.83689117,-121.41851807,0.12866211000005
-84.84371948,-121.40119171,0.12890625
-84.84352875,-121.41493988,0.12890625
-84.8405838,-121.41307831,0.129272460000038
-84.83022308,-121.41423798,0.129272460000038
-84.84670258,-121.4172821,0.129516600000215
-84.83569336,-121.40940857,0.129638670000077
-84.84829712,-121.43022156,0.129638670000077
-84.83934784,-121.41947937,0.129638670000077
-84.84838867,-121.38778687,0.129760750000059
-84.8286972,-121.41462708,0.129760750000059
-84.84316254,-121.39486694,0.130126960000098
-84.83447266,-121.4148407,0.130371100000048
-84.84426117,-121.39897156,0.130493170000136
-84.83495331,-121.40885162,0.130615240000225
-84.83878326,-121.40086365,0.130737310000086
-84.84467316,-121.4174118,0.131225590000213
-84.83760071,-121.41686249,0.131225590000213
-84.829422,-121.41571808,0.131469730000163
-84.83467865,-121.40879822,0.131835940000201
-84.83316803,-121.41602325,0.131835940000201
-84.84346771,-121.4256134,0.132080080000151
-84.83027649,-121.40564728,0.132202150000012
-84.84635162,-121.39923096,0.1323242200001
-84.83052063,-121.41481018,0.132446290000189
-84.83467865,-121.40852356,0.1328125
-84.83203888,-121.38941193,0.132934570000089
-84.83995056,-121.4228363,0.133056640000177
-84.83519745,-121.4058609,0.133178710000038
-84.83438873,-121.40975189,0.133178710000038
-84.84210968,-121.39853668,0.133300780000127
-84.8366394,-121.38603973,0.133422850000215
-84.83479309,-121.41842651,0.133544920000077
-84.84011078,-121.38715363,0.133667000000059
-84.84738159,-121.43396759,0.133911140000009
-84.83351135,-121.40386963,0.134033210000098
-84.84583282,-121.41934967,0.134033210000098
-84.82894897,-121.40730286,0.134033210000098
-84.83975983,-121.41365051,0.134033210000098
-84.83056641,-121.4148407,0.134155280000186
-84.8363266,-121.40148926,0.134277350000048
-84.84857941,-121.40022278,0.134399420000136
-84.83062744,-121.4173584,0.134399420000136
-84.84414673,-121.41677094,0.135009770000124
-84.8367691,-121.41277313,0.135009770000124
-84.83354187,-121.41911316,0.135498050000024
-84.83721924,-121.41426849,0.135620120000112
-84.84229279,-121.42932892,0.135864260000062
-84.83178711,-121.4192276,0.135864260000062
-84.8335495,-121.39586639,0.135986330000151
-84.83499908,-121.41293335,0.135986330000151
-84.83065033,-121.40828705,0.136108400000012
-84.84771729,-121.42185211,0.1362304700001
-84.82491302,-121.42070007,0.1362304700001
-84.84481812,-121.41874695,0.136352540000189
-84.83113861,-121.39277649,0.136352540000189
-84.82898712,-121.38970184,0.13647461000005
-84.84899139,-121.42137146,0.13671875
-84.82913208,-121.41828156,0.13671875
-84.82940674,-121.40746307,0.136962890000177
-84.8452301,-121.43383789,0.136962890000177
-84.8321991,-121.39053345,0.137207030000127
-84.84844208,-121.40090179,0.137451170000077
-84.84745789,-121.42179871,0.137451170000077
-84.83149719,-121.38899994,0.137451170000077
-84.83925629,-121.42711639,0.137695320000148
-84.83641052,-121.41516876,0.137817390000009
-84.82565308,-121.39955139,0.137939460000098
-84.849617,-121.42459869,0.138061530000186
-84.83371735,-121.41333008,0.138061530000186
-84.84622955,-121.42098236,0.138427740000225
-84.83030701,-121.41989899,0.138427740000225
-84.84477234,-121.40418243,0.138549810000086
-84.822052,-121.41649628,0.138671880000174
-84.8252182,-121.4177475,0.138793950000036
-84.82514954,-121.40725708,0.138916020000124
-84.84147644,-121.38926697,0.139038090000213
-84.84288025,-121.43269348,0.139038090000213
-84.83722687,-121.38912964,0.139282230000163
-84.84870148,-121.4386673,0.139526370000112
-84.84348297,-121.42034912,0.139648440000201
-84.84069061,-121.43202209,0.139648440000201
-84.83215332,-121.42256927,0.139770510000062
-84.84764099,-121.42321777,0.140014650000012
-84.81809235,-121.41320038,0.1401367200001
-84.84522247,-121.40271759,0.140747070000089
-84.84382629,-121.43403625,0.140747070000089
-84.82952118,-121.42137909,0.140869140000177
-84.83397675,-121.42523956,0.140991210000038
-84.82328796,-121.42089081,0.141113280000127
-84.83950806,-121.41867065,0.141235350000215
-84.82556915,-121.40869904,0.141235350000215
-84.8438797,-121.43681335,0.141235350000215
-84.83895111,-121.39964294,0.141723640000009
-84.82488251,-121.39891052,0.141723640000009
-84.84414673,-121.42205048,0.141967780000186
-84.83695221,-121.42949677,0.141967780000186
-84.83023071,-121.42246246,0.142333990000225
-84.8433075,-121.40099335,0.142822270000124
-84.84124756,-121.43260956,0.142822270000124
-84.84738922,-121.40345764,0.143066410000074
-84.83296204,-121.42645264,0.143432620000112
-84.84175873,-121.39846802,0.143554690000201
-84.84905243,-121.39337158,0.143554690000201
-84.83631897,-121.4284668,0.143554690000201
-84.84509277,-121.43845367,0.144165040000189
-84.82701111,-121.40965271,0.14428711000005
-84.82582092,-121.40760803,0.14453125
-84.82942963,-121.42392731,0.14453125
-84.84741211,-121.40363312,0.145019530000127
-84.8411026,-121.42259216,0.145141600000215
-84.83055115,-121.4227829,0.145263670000077
-84.8433609,-121.40010834,0.145385750000059
-84.8453598,-121.43874359,0.145385750000059
-84.8336792,-121.42453003,0.145507820000148
-84.8375473,-121.4041214,0.145629890000009
-84.82119751,-121.42053986,0.145629890000009
-84.8408432,-121.42230225,0.146118170000136
-84.84876251,-121.44378662,0.146362310000086
-84.83257294,-121.41500854,0.146606450000036
-84.82649994,-121.40930939,0.146606450000036
-84.83889008,-121.43222809,0.146606450000036
-84.83930206,-121.39784241,0.146728520000124
-84.84902191,-121.40527344,0.146850590000213
-84.84752655,-121.40302277,0.146972660000074
-84.83000946,-121.3931427,0.147094730000163
-84.84889984,-121.42829132,0.147216800000024
-84.84539795,-121.40139771,0.147460940000201
-84.82926941,-121.42070007,0.147460940000201
-84.84699249,-121.44441986,0.147460940000201
-84.83956146,-121.42269897,0.147827150000012
-84.8241272,-121.39665985,0.148315430000139
-84.83560181,-121.42999268,0.148315430000139
-84.83834076,-121.42163849,0.148559570000089
-84.83709717,-121.38980865,0.148803710000038
-84.82485199,-121.41686249,0.148803710000038
-84.83587646,-121.42005157,0.149047850000215
-84.84786224,-121.42868805,0.149169920000077
-84.8401413,-121.40318298,0.149414070000148
-84.83586884,-121.43028259,0.149536140000009
-84.83155823,-121.41413116,0.149780280000186
-84.84487915,-121.40268707,0.149902350000048
-84.84314728,-121.40048981,0.149902350000048
-84.82736206,-121.41248322,0.149902350000048
