"X","Y","Z"
-84.95829773,-121.36882019,0.450195320000148
-84.95063019,-121.35437012,0.450195320000148
-84.98699188,-121.38892365,0.450317390000009
-84.97315216,-121.40509033,0.450317390000009
-84.98690033,-121.39491272,0.450317390000009
-84.96972656,-121.36975861,0.450439460000098
-84.98135376,-121.37654114,0.450561530000186
-84.97910309,-121.37674713,0.450561530000186
-84.9848175,-121.38092804,0.450561530000186
-84.97490692,-121.37506104,0.450683600000048
-84.98589325,-121.39305878,0.450683600000048
-84.99082184,-121.40071869,0.450805670000136
-84.98622131,-121.40187073,0.450927740000225
-84.98422241,-121.40171051,0.451049810000086
-84.97982025,-121.40988922,0.451049810000086
-84.97489929,-121.36763,0.451171880000174
-84.96723175,-121.37126923,0.451171880000174
-84.98992157,-121.39569092,0.451171880000174
-84.95536041,-121.37065887,0.451171880000174
-84.96381378,-121.39659882,0.451171880000174
-84.95735931,-121.39559174,0.451171880000174
-84.98861694,-121.39736938,0.451171880000174
-84.98262787,-121.37905121,0.451416020000124
-84.98628998,-121.38314819,0.451416020000124
-84.98526764,-121.38851166,0.451416020000124
-84.96626282,-121.39729309,0.451416020000124
-84.97158051,-121.37008667,0.451660160000074
-84.96253204,-121.37724304,0.451660160000074
-84.98162079,-121.40953827,0.451782230000163
-84.97296143,-121.40484619,0.451782230000163
-84.98693085,-121.40595245,0.451904300000024
-84.95584869,-121.39598083,0.452026370000112
-84.96510315,-121.3625412,0.452148440000201
-84.98117065,-121.41226959,0.452148440000201
-84.96116638,-121.395401,0.452270510000062
-84.98539734,-121.4095993,0.452392580000151
-84.97499084,-121.40802765,0.452392580000151
-84.95848846,-121.3944397,0.452392580000151
-84.97944641,-121.37481689,0.452514650000012
-84.98493195,-121.38031769,0.452514650000012
-84.95800018,-121.37850189,0.452514650000012
-84.95480347,-121.35592651,0.452514650000012
-84.95767975,-121.36057281,0.452514650000012
-84.96807098,-121.3633728,0.4526367200001
-84.96607208,-121.39704895,0.4526367200001
-84.96743774,-121.36988068,0.45288086000005
-84.99021149,-121.39969635,0.45288086000005
-84.9834137,-121.41049194,0.45288086000005
-84.98960876,-121.40743256,0.453002930000139
-84.9887085,-121.38258362,0.453125
-84.95947266,-121.37332153,0.453125
-84.97789001,-121.40976715,0.453125
-84.95095825,-121.39160156,0.453247070000089
-84.99565887,-121.40003967,0.453369140000177
-84.97174072,-121.36972809,0.453491210000038
-84.96569824,-121.36766052,0.453491210000038
-84.96296692,-121.37666321,0.453491210000038
-84.95609283,-121.39350891,0.453491210000038
-84.96508026,-121.36273956,0.453613280000127
-84.9766922,-121.37635803,0.453735350000215
-84.97473145,-121.37548828,0.453735350000215
-84.99249268,-121.4029007,0.453735350000215
-84.99137878,-121.40431976,0.453735350000215
-84.98944855,-121.41294098,0.453735350000215
-84.95704651,-121.37275696,0.454101570000148
-84.96723175,-121.39891052,0.454101570000148
-84.98596191,-121.38413239,0.454223640000009
-84.96636963,-121.40035248,0.454345710000098
-84.99742126,-121.40116119,0.454467780000186
-84.97440338,-121.40676117,0.454467780000186
-84.99009705,-121.40824127,0.454711920000136
-84.98728943,-121.37949371,0.454833990000225
-84.97364807,-121.37158203,0.455078130000174
-84.98136902,-121.37560272,0.455078130000174
-84.99649048,-121.39672852,0.455078130000174
-84.98769379,-121.40705872,0.455078130000174
-84.98883057,-121.38197327,0.455200200000036
-84.99098206,-121.40355682,0.455322270000124
-84.95549011,-121.39224243,0.455322270000124
-84.95745087,-121.37109375,0.455566410000074
-84.96237946,-121.39730072,0.455566410000074
-84.96034241,-121.37763214,0.455810550000024
-84.95716095,-121.36058807,0.455810550000024
-84.95913696,-121.3742981,0.455932620000112
-84.98504639,-121.40911865,0.455932620000112
-84.96238708,-121.37030029,0.456054690000201
-84.99105835,-121.40608215,0.456054690000201
-84.97885895,-121.40812683,0.456054690000201
-84.99150085,-121.41013336,0.456176760000062
-84.96608734,-121.37317657,0.456176760000062
-84.99767303,-121.40000916,0.456420900000012
-84.96508789,-121.39827728,0.456420900000012
-84.97154999,-121.40556335,0.4565429700001
-84.98538971,-121.37776947,0.456665040000189
-84.98464203,-121.40509033,0.456665040000189
-84.96633148,-121.37329102,0.45678711000005
-84.99669647,-121.3953476,0.45678711000005
-84.95876312,-121.35566711,0.45678711000005
-84.95107269,-121.38839722,0.45678711000005
-84.98954773,-121.3965683,0.456909180000139
-84.98956299,-121.41275024,0.456909180000139
-84.98020935,-121.40724945,0.45703125
-84.96151733,-121.39600372,0.45703125
-84.97602081,-121.40641785,0.457153320000089
-84.9699173,-121.37583923,0.457397460000038
-84.95847321,-121.35690308,0.457397460000038
-84.98927307,-121.40068817,0.457397460000038
-84.98555756,-121.40969086,0.457641600000215
-84.96601105,-121.39987183,0.457641600000215
-84.95307159,-121.38881683,0.457641600000215
-84.99130249,-121.40688324,0.457763670000077
-84.99001312,-121.41053772,0.457763670000077
-84.95731354,-121.39241791,0.457763670000077
-84.96224213,-121.37995148,0.457763670000077
-84.96851349,-121.37277985,0.458007820000148
-84.99012756,-121.39057159,0.458007820000148
-84.97738647,-121.37374878,0.458129890000009
-84.99199677,-121.4046936,0.458496100000048
-84.96019745,-121.3688736,0.458496100000048
-84.99044037,-121.40091705,0.458618170000136
-84.9729538,-121.40444183,0.458618170000136
-84.97691345,-121.40525818,0.458740240000225
-84.95694733,-121.35704803,0.458862310000086
-84.99150848,-121.40139008,0.458862310000086
-84.95249176,-121.35565186,0.458984380000174
-84.96848297,-121.40084076,0.458984380000174
-84.9707489,-121.37252808,0.459228520000124
-84.96600342,-121.37428284,0.459228520000124
-84.95113373,-121.38870239,0.459472660000074
-84.99082184,-121.40261078,0.459472660000074
-84.99613953,-121.39765167,0.459594730000163
-84.95645905,-121.39112091,0.459594730000163
-84.95819855,-121.35655975,0.459838870000112
-84.99143982,-121.39359283,0.459838870000112
-84.98718262,-121.41236115,0.459960940000201
-84.98252869,-121.4077301,0.459960940000201
-84.97750092,-121.3731308,0.460205080000151
-84.98166656,-121.40917206,0.460205080000151
-84.97232056,-121.40039825,0.460205080000151
-84.95623016,-121.35547638,0.460327150000012
-84.96289063,-121.35819244,0.4604492200001
-84.99291992,-121.40328217,0.4604492200001
-84.97717285,-121.4058075,0.4604492200001
-84.95339966,-121.38889313,0.4604492200001
-84.98738098,-121.4036026,0.46069336000005
-84.96208191,-121.37142944,0.461303710000038
-84.97924805,-121.40849304,0.461303710000038
-84.9690094,-121.39816284,0.461303710000038
-84.98769379,-121.39118958,0.461425780000127
-84.95076752,-121.38770294,0.461547850000215
-84.96383667,-121.36518097,0.461669920000077
-84.97992706,-121.37256622,0.461669920000077
-84.96315765,-121.35716248,0.461669920000077
-84.99143982,-121.3991394,0.461669920000077
-84.97879028,-121.3842926,0.462036140000009
-84.99317932,-121.40383148,0.462036140000009
-84.98854065,-121.4054718,0.462036140000009
-84.950737,-121.35423279,0.462402350000048
-84.96025848,-121.3624115,0.462402350000048
-84.9901886,-121.39376068,0.462524420000136
-84.95020294,-121.35545349,0.462768560000086
-84.98948669,-121.40956879,0.462768560000086
-84.99056244,-121.4023819,0.462890630000174
-84.96595001,-121.38498688,0.462890630000174
-84.95445251,-121.35533142,0.463012700000036
-84.96679688,-121.37088776,0.463134770000124
-84.97348785,-121.40254974,0.463134770000124
-84.9516983,-121.38929749,0.463256840000213
-84.97711945,-121.37384796,0.463378910000074
-84.99346924,-121.40712738,0.463378910000074
-84.98902893,-121.40602875,0.463378910000074
-84.96862793,-121.3973999,0.463378910000074
-84.96819305,-121.373909,0.463500980000163
-84.98751831,-121.41268158,0.463500980000163
-84.99770355,-121.39920807,0.463623050000024
-84.96114349,-121.35703278,0.463623050000024
-84.99343872,-121.4043808,0.463745120000112
-84.98838806,-121.40171814,0.463867190000201
-84.97599792,-121.36972046,0.463989260000062
-84.95066833,-121.37931824,0.463989260000062
-84.95018768,-121.35540771,0.463989260000062
-84.95851898,-121.3598938,0.464111330000151
-84.96071625,-121.36750793,0.464477540000189
-84.95838928,-121.3759079,0.464477540000189
-84.95728302,-121.39225769,0.464477540000189
-84.95809937,-121.38105774,0.464477540000189
-84.97795868,-121.37056732,0.46459961000005
-84.98355865,-121.41239166,0.46459961000005
-84.95909119,-121.3916626,0.464721680000139
-84.99067688,-121.39920807,0.464721680000139
-84.99577332,-121.39855194,0.46484375
-84.98863983,-121.40527344,0.46484375
-84.95816803,-121.36628723,0.464965820000089
-84.96447754,-121.35384369,0.465087890000177
-84.95131683,-121.3885498,0.465209960000038
-84.95021057,-121.38996124,0.465209960000038
-84.96988678,-121.37477112,0.465332030000127
-84.96707916,-121.35842133,0.465332030000127
-84.989151,-121.41184235,0.465454100000215
-84.98642731,-121.3913269,0.465454100000215
-84.9630127,-121.38292694,0.465576170000077
-84.99463654,-121.38625336,0.465698250000059
-84.9895401,-121.40270233,0.465698250000059
-84.9980011,-121.39829254,0.466064460000098
-84.97714996,-121.39009857,0.466064460000098
-84.95213318,-121.38149261,0.466064460000098
-84.95314789,-121.35594177,0.466064460000098
-84.97380829,-121.40287018,0.466064460000098
-84.97849274,-121.40724945,0.466064460000098
-84.96349335,-121.37036896,0.466064460000098
-84.96131897,-121.36553192,0.466186530000186
-84.99091339,-121.39633942,0.466186530000186
-84.9777832,-121.37103271,0.466796880000174
-84.9658432,-121.37377167,0.466796880000174
-84.95005798,-121.38137817,0.466796880000174
-84.9613266,-121.38626099,0.466918950000036
-84.99250031,-121.40811157,0.467163090000213
-84.96278381,-121.36792755,0.467285160000074
-84.95069122,-121.35405731,0.467407230000163
-84.97897339,-121.40480042,0.467407230000163
-84.99359131,-121.40720367,0.467651370000112
-84.99051666,-121.41123199,0.467651370000112
-84.96967316,-121.39880371,0.467773440000201
-84.95778656,-121.36019135,0.467773440000201
-84.97470093,-121.37468719,0.467895510000062
-84.99536133,-121.40708923,0.467895510000062
-84.95258331,-121.38745117,0.468017580000151
-84.96974945,-121.37545776,0.468139650000012
-84.96141815,-121.35463715,0.468139650000012
-84.96009064,-121.39304352,0.468139650000012
-84.96652985,-121.3710022,0.468383790000189
-84.99500275,-121.40112305,0.468383790000189
-84.97866058,-121.36797333,0.46850586000005
-84.96385956,-121.39634705,0.46850586000005
-84.99754333,-121.39981842,0.468627930000139
-84.95475006,-121.39112091,0.468872070000089
-84.97122192,-121.37026215,0.468994140000177
-84.97544098,-121.40254211,0.468994140000177
-84.96762848,-121.37509155,0.469116210000038
-84.99907684,-121.40357208,0.469116210000038
-84.98989868,-121.39644623,0.469116210000038
-84.98415375,-121.41000366,0.469360350000215
-84.96569061,-121.3990097,0.469360350000215
-84.97937775,-121.37391663,0.469482420000077
-84.9753418,-121.37168884,0.469604500000059
-84.97679901,-121.40139771,0.469726570000148
-84.96791077,-121.3964386,0.469848640000009
-84.99085999,-121.41429901,0.470092780000186
-84.95645905,-121.37232971,0.470092780000186
-84.96350861,-121.39835358,0.470214850000048
-84.96418762,-121.36734772,0.470214850000048
-84.97823334,-121.38562012,0.470336920000136
-84.99697876,-121.40350342,0.470336920000136
-84.95778656,-121.35769653,0.470458990000225
-84.99506378,-121.40026093,0.470581060000086
-84.9581604,-121.39318085,0.470703130000174
-84.98486328,-121.41107941,0.470825200000036
-84.96903229,-121.39528656,0.470825200000036
-84.96605682,-121.37254333,0.470947270000124
-84.96495056,-121.36842346,0.471069340000213
-84.99149323,-121.40985107,0.471191410000074
-84.97728729,-121.40220642,0.471191410000074
-84.96173096,-121.37136841,0.471313480000163
-84.95236206,-121.3552475,0.471313480000163
-84.99506378,-121.40103912,0.471313480000163
-84.95629883,-121.37351227,0.471557620000112
-84.99767303,-121.4048233,0.471557620000112
-84.96710205,-121.38458252,0.471679690000201
-84.98754883,-121.41230774,0.471801760000062
-84.97914886,-121.37412262,0.471923830000151
-84.9952774,-121.40338898,0.471923830000151
-84.95781708,-121.35614777,0.472045900000012
-84.98135376,-121.40830994,0.472045900000012
-84.96199036,-121.39600372,0.472045900000012
-84.99159241,-121.39607239,0.4721679700001
-84.95162201,-121.35469055,0.472290040000189
-84.97496033,-121.37241364,0.47265625
-84.96656799,-121.3787384,0.472900390000177
-84.95198822,-121.3894577,0.472900390000177
-84.97251129,-121.37418365,0.473144530000127
-84.95532227,-121.38871765,0.473144530000127
-84.9885025,-121.41365814,0.473266600000215
-84.96325684,-121.3885498,0.473266600000215
-84.97067261,-121.37148285,0.473510750000059
-84.96248627,-121.3965683,0.473510750000059
-84.96443176,-121.36971283,0.473632820000148
-84.9955368,-121.40393066,0.473632820000148
-84.9546814,-121.39069366,0.473632820000148
-84.99353027,-121.40402985,0.473754890000009
-84.99266052,-121.40545654,0.473754890000009
-84.9717865,-121.39655304,0.473754890000009
-84.99437714,-121.40206146,0.473999030000186
-84.9905014,-121.41081238,0.473999030000186
-84.96740723,-121.37545776,0.474121100000048
-84.95825958,-121.39322662,0.474243170000136
-84.97492218,-121.40157318,0.474365240000225
-84.9788208,-121.37512207,0.474487310000086
-84.95294189,-121.39082336,0.474609380000174
-84.95970917,-121.37037659,0.474853520000124
-84.98454285,-121.41036224,0.474853520000124
-84.95880127,-121.38374329,0.474853520000124
-84.98809052,-121.41314697,0.474975590000213
-84.95606232,-121.39282227,0.474975590000213
-84.98152161,-121.39251709,0.474975590000213
-84.96296692,-121.39437103,0.475097660000074
-84.99317169,-121.40602875,0.475219730000163
-84.95658112,-121.37254333,0.475341800000024
-84.9807663,-121.40756226,0.475585940000201
-84.96144867,-121.39476013,0.475585940000201
-84.95794678,-121.37497711,0.475585940000201
-84.96563721,-121.39257813,0.475708010000062
-84.96565247,-121.38780212,0.475708010000062
-84.95157623,-121.35456848,0.475952150000012
-84.99066925,-121.3897934,0.475952150000012
-84.99359894,-121.40081024,0.4760742200001
-84.96569061,-121.37342834,0.476196290000189
-84.96208191,-121.3900528,0.476196290000189
-84.98628235,-121.38804626,0.476196290000189
-84.96195221,-121.38567352,0.476196290000189
-84.9704895,-121.37191772,0.47631836000005
-84.99476624,-121.40843201,0.47631836000005
-84.95433044,-121.36367798,0.47631836000005
-84.97170258,-121.37651825,0.476440430000139
-84.99494934,-121.40618134,0.476440430000139
-84.96340179,-121.36734009,0.4765625
-84.98880768,-121.41423035,0.476684570000089
-84.98391724,-121.40933228,0.476684570000089
-84.96092987,-121.37387848,0.476928710000038
-84.96723938,-121.39498138,0.476928710000038
-84.99440765,-121.39212799,0.477050780000127
-84.9614563,-121.39202118,0.477172850000215
-84.97869873,-121.38320923,0.477294920000077
-84.96115875,-121.35958862,0.477294920000077
-84.96000671,-121.383461,0.477294920000077
-84.97479248,-121.37303162,0.477417000000059
-84.99994659,-121.39949036,0.477417000000059
-84.97857666,-121.37529755,0.477539070000148
-84.98017883,-121.40628815,0.477539070000148
-84.97547913,-121.40216064,0.477539070000148
-84.9801712,-121.3780365,0.477661140000009
-84.97650909,-121.37393951,0.477661140000009
-84.99716187,-121.40086365,0.477661140000009
-84.99237823,-121.40750885,0.477661140000009
-84.99102783,-121.40865326,0.477661140000009
-84.99635315,-121.40807343,0.477783210000098
-84.99210358,-121.40168762,0.477783210000098
-84.96205902,-121.36950684,0.478027350000048
-84.96221161,-121.37058258,0.478027350000048
-84.95500183,-121.36047363,0.478027350000048
-84.98464203,-121.41040802,0.478149420000136
-84.95948792,-121.39187622,0.478149420000136
-84.96749115,-121.37477112,0.478271490000225
-84.9881897,-121.41320038,0.478271490000225
-84.98001099,-121.37113953,0.478393560000086
-84.96131897,-121.3740387,0.478393560000086
-84.95845032,-121.37432861,0.478637700000036
-84.99571228,-121.40377045,0.478637700000036
-84.99285126,-121.40830994,0.478637700000036
-84.97058868,-121.37129211,0.478759770000124
-84.99690247,-121.40084076,0.478759770000124
-84.97595978,-121.40296936,0.478759770000124
-84.96308136,-121.39443207,0.478759770000124
-84.99653625,-121.40283203,0.478881840000213
-84.9611969,-121.36515045,0.478881840000213
-84.96492767,-121.37602997,0.479125980000163
-84.99108887,-121.41168976,0.479125980000163
-84.97886658,-121.40445709,0.479370120000112
-84.95497894,-121.37731171,0.479492190000201
-84.96180725,-121.37671661,0.479492190000201
-84.96772766,-121.39305878,0.479736330000151
-84.96038818,-121.3874588,0.479736330000151
-84.991539,-121.3986969,0.479736330000151
-84.97979736,-121.37879181,0.479858400000012
-84.96070862,-121.36801147,0.4799804700001
-84.99049377,-121.41340637,0.480102540000189
-84.95044708,-121.38970184,0.48022461000005
-84.99752045,-121.41020966,0.48046875
-84.98156738,-121.40569305,0.480590820000089
-84.97412109,-121.37483215,0.480712890000177
-84.99091339,-121.41145325,0.480712890000177
-84.96247101,-121.39340973,0.480834960000038
-84.95305634,-121.36100769,0.480834960000038
-84.97782898,-121.40239716,0.480957030000127
-84.95371246,-121.37368011,0.481079100000215
-84.99157715,-121.40950012,0.481201170000077
-84.98468781,-121.40769958,0.481201170000077
-84.96282959,-121.36076355,0.481323250000059
-84.97899628,-121.37378693,0.481445320000148
-84.95797729,-121.37584686,0.481445320000148
-84.98873901,-121.41378784,0.481445320000148
-84.95249939,-121.38963318,0.481445320000148
-84.9560318,-121.38939667,0.481567390000009
-84.96266937,-121.38791656,0.481689460000098
-84.99623108,-121.40264893,0.481811530000186
-84.95870209,-121.39061737,0.481811530000186
-84.9699173,-121.37309265,0.482055670000136
-84.99514771,-121.402771,0.482177740000225
-84.99162292,-121.41252899,0.482177740000225
-84.98542786,-121.41153717,0.482299810000086
-84.98773193,-121.40569305,0.482543950000036
-84.99230194,-121.40731812,0.482666020000124
-84.96225739,-121.39041138,0.482666020000124
-84.99485779,-121.39750671,0.482666020000124
-84.95430756,-121.37911224,0.482788090000213
-84.95717621,-121.3912735,0.482788090000213
-84.9794693,-121.37976837,0.482910160000074
-84.960289,-121.39000702,0.482910160000074
-84.99861908,-121.40312195,0.483276370000112
-84.98156738,-121.38008118,0.483276370000112
-84.96605682,-121.37180328,0.483398440000201
-84.99234772,-121.41335297,0.483398440000201
-84.98679352,-121.41065979,0.483520510000062
-84.97229004,-121.39723206,0.483520510000062
-84.9917984,-121.40161133,0.483520510000062
-84.96659088,-121.37243652,0.483642580000151
-84.95786285,-121.389328,0.483764650000012
-84.9626236,-121.38256836,0.4838867200001
-84.96212006,-121.39267731,0.48413086000005
-84.9788208,-121.37422943,0.484252930000139
-84.98068237,-121.3746109,0.484252930000139
-84.9733429,-121.37000275,0.484252930000139
-84.99188232,-121.41007233,0.484375
-84.96974182,-121.37355042,0.484619140000177
-84.99978638,-121.39898682,0.484741210000038
-84.96369171,-121.38905334,0.484863280000127
-84.98719025,-121.38768005,0.484863280000127
-84.97644806,-121.37393188,0.484985350000215
-84.96204376,-121.36847687,0.484985350000215
-84.9774704,-121.40218353,0.484985350000215
-84.950737,-121.35398865,0.485229500000059
-84.99410248,-121.40448761,0.485229500000059
-84.9645462,-121.3669281,0.485229500000059
-84.96299744,-121.37915802,0.485229500000059
-84.99150848,-121.4120636,0.485351570000148
-84.97361755,-121.37628174,0.485473640000009
-84.95861053,-121.35798645,0.485473640000009
-84.99256134,-121.38921356,0.485717780000186
-84.96479034,-121.38815308,0.485839850000048
-84.98555756,-121.41136169,0.486083990000225
-84.96968842,-121.39305115,0.486083990000225
-84.96235657,-121.39047241,0.486083990000225
-84.99128723,-121.40879822,0.486206060000086
-84.95928955,-121.39122772,0.486206060000086
-84.96305847,-121.38802338,0.486450200000036
-84.99481964,-121.3946228,0.486572270000124
-84.99284363,-121.40516663,0.486694340000213
-84.96247101,-121.36116791,0.486816410000074
-84.99382782,-121.39199829,0.486816410000074
-84.96337128,-121.3724823,0.486938480000163
-84.99414825,-121.40451813,0.486938480000163
-84.99201202,-121.41262817,0.486938480000163
-84.97458649,-121.37243652,0.487060550000024
-84.96340942,-121.37319183,0.487182620000112
-84.96955109,-121.37399292,0.487304690000201
-84.98892212,-121.41062927,0.487304690000201
-84.97553253,-121.39904785,0.487304690000201
-84.99198914,-121.40986633,0.487426760000062
-84.96814728,-121.37094116,0.487670900000012
-84.97625732,-121.37435913,0.487915040000189
-84.96608734,-121.37084961,0.487915040000189
-84.97147369,-121.37586975,0.487915040000189
-84.98766327,-121.38751984,0.488159180000139
-84.96430206,-121.36840057,0.48828125
-84.95388794,-121.35598755,0.48828125
-84.99240112,-121.39807892,0.488403320000089
-84.98316956,-121.40769196,0.488525390000177
-84.99057007,-121.38951111,0.488769530000127
-84.95574951,-121.37397766,0.488891600000215
-84.99623108,-121.40445709,0.488891600000215
-84.95001984,-121.38578033,0.489135750000059
-84.98085785,-121.38179016,0.489257820000148
-84.95491028,-121.35523987,0.489257820000148
-84.98539734,-121.4083786,0.489379890000009
-84.96956635,-121.39259338,0.489379890000009
-84.9920578,-121.40664673,0.489501960000098
-84.96095276,-121.3939209,0.489624030000186
-84.95237732,-121.37744904,0.489990240000225
-84.951828,-121.38870239,0.489990240000225
-84.99468994,-121.40535736,0.490234380000174
-84.98410034,-121.4092865,0.490234380000174
-84.96450806,-121.39346313,0.490234380000174
-84.97786713,-121.3772583,0.490356450000036
-84.95909882,-121.35659027,0.490356450000036
-84.99581146,-121.40395355,0.490478520000124
-84.99253082,-121.41072083,0.490600590000213
-84.96539307,-121.38877106,0.490600590000213
-84.99005127,-121.3867569,0.490600590000213
-84.97886658,-121.38085938,0.490966800000024
-84.98252869,-121.38494873,0.490966800000024
-84.99604034,-121.40122223,0.490966800000024
-84.99056244,-121.41031647,0.490966800000024
-84.9611969,-121.3911972,0.490966800000024
-84.958992,-121.3937912,0.490966800000024
-84.97924042,-121.40441132,0.491210940000201
-84.96826935,-121.39076233,0.491210940000201
-84.99720764,-121.3966217,0.491210940000201
-84.96334076,-121.37129211,0.491455080000151
-84.96424866,-121.36682892,0.491455080000151
-84.96694183,-121.36772156,0.491577150000012
-84.96031952,-121.37394714,0.4916992200001
-84.98029327,-121.38282776,0.491821290000189
-84.96588898,-121.389328,0.491821290000189
-84.98281097,-121.4072113,0.49194336000005
-84.95146942,-121.38768768,0.492065430000139
-84.99933624,-121.39955902,0.4921875
-84.97798157,-121.37664795,0.492309570000089
-84.96157074,-121.3568573,0.492431640000177
-84.96238708,-121.39582825,0.492553710000038
-84.96755219,-121.37316895,0.492797850000215
-84.96125793,-121.39124298,0.492919920000077
-84.95510864,-121.35536957,0.493042000000059
-84.97158051,-121.37538147,0.493164070000148
-84.96392822,-121.38919067,0.493164070000148
-84.98220062,-121.38594818,0.493408210000098
-84.95231628,-121.35626984,0.493530280000186
-84.96478271,-121.35767365,0.493774420000136
-84.96009064,-121.37416077,0.493896490000225
-84.96433258,-121.35614014,0.493896490000225
-84.96233368,-121.3560791,0.493896490000225
-84.95059967,-121.35520172,0.494018560000086
-84.96656036,-121.36846924,0.494140630000174
-84.96295929,-121.37201691,0.494140630000174
-84.99265289,-121.41053009,0.494140630000174
-84.98043823,-121.40303802,0.494140630000174
-84.97015381,-121.39346313,0.494140630000174
-84.96528625,-121.38831329,0.494140630000174
-84.96264648,-121.39311981,0.494140630000174
-84.98023987,-121.37532806,0.494262700000036
-84.96492004,-121.36638641,0.494262700000036
-84.96283722,-121.39087677,0.494384770000124
-84.95262909,-121.38681793,0.494750980000163
-84.98383331,-121.3704834,0.494873050000024
-84.99791718,-121.40442657,0.494873050000024
-84.98474884,-121.37615204,0.495117190000201
-84.96154785,-121.35675812,0.495239260000062
-84.96665955,-121.39044189,0.495239260000062
-84.99358368,-121.39769745,0.495239260000062
-84.99449921,-121.39167786,0.495361330000151
-84.99356079,-121.40911102,0.4956054700001
-84.97489166,-121.39761353,0.4956054700001
-84.96977234,-121.3927002,0.49584961000005
-84.9650116,-121.37242889,0.49609375
-84.97872925,-121.37301636,0.496215820000089
-84.96224213,-121.38960266,0.496215820000089
-84.99330902,-121.39492035,0.496582030000127
-84.97071075,-121.37747192,0.496704100000215
-84.9675293,-121.35665894,0.496704100000215
-84.99217224,-121.3859787,0.496704100000215
-84.9683075,-121.35591888,0.496948250000059
-84.99308777,-121.40283203,0.497070320000148
-84.98368835,-121.36990356,0.497436530000186
-84.96607971,-121.36997223,0.497436530000186
-84.96298981,-121.35774231,0.497436530000186
-84.9594574,-121.37619781,0.497558600000048
-84.99539185,-121.40904236,0.497558600000048
-84.97586823,-121.37406921,0.497680670000136
-84.98519897,-121.38210297,0.497680670000136
-84.96331787,-121.35523987,0.497680670000136
-84.95691681,-121.38443756,0.497680670000136
-84.97406769,-121.39608002,0.497680670000136
-84.99571991,-121.39698792,0.497680670000136
-84.9883194,-121.40647888,0.497802740000225
-84.9809494,-121.3727417,0.497924810000086
-84.97913361,-121.37133789,0.497924810000086
-84.97370911,-121.37476349,0.497924810000086
-84.96337891,-121.37052155,0.497924810000086
-84.96752167,-121.35662079,0.497924810000086
-84.95831299,-121.39559174,0.497924810000086
-84.95813751,-121.36551666,0.497924810000086
-84.95787048,-121.37471008,0.498168950000036
-84.98522186,-121.40447998,0.498291020000124
-84.9677124,-121.35835266,0.498779300000024
-84.96671295,-121.38799286,0.498779300000024
-84.97441101,-121.37200928,0.499145510000062
-84.99803162,-121.40148926,0.499145510000062
-84.996521,-121.40161896,0.499145510000062
-84.95892334,-121.35904694,0.499267580000151
-84.97647095,-121.3720932,0.499389650000012
-84.9625473,-121.3901825,0.499389650000012
-84.95942688,-121.37612915,0.4995117200001
-84.96369934,-121.36953735,0.4995117200001
-84.95461273,-121.3923111,0.499633790000189
-84.99372864,-121.39452362,0.499633790000189
-84.95703125,-121.39025116,0.49975586000005
-84.96208191,-121.37313843,0.499877930000139
-84.96723175,-121.38829803,0.5
-84.95903015,-121.39041138,0.5
-84.95101929,-121.39028168,0.5
-84.96623993,-121.36958313,0.500122070000089
-84.95835114,-121.38635254,0.500122070000089
-84.96214294,-121.38614655,0.500488280000127
-84.98072052,-121.37294006,0.500732420000077
-84.99619293,-121.39684296,0.500732420000077
-84.95556641,-121.37355804,0.500854500000059
-84.97570801,-121.39575195,0.500854500000059
-84.98104858,-121.40119171,0.500854500000059
-84.97148895,-121.35665131,0.500976570000148
-84.97451782,-121.37139893,0.501098640000009
-84.96077728,-121.3550415,0.501098640000009
-84.95729065,-121.37574005,0.501220710000098
-84.95670319,-121.35765839,0.501220710000098
-84.95707703,-121.39353943,0.501464850000048
-84.98995972,-121.40615845,0.501586920000136
-84.95697784,-121.36811829,0.501708990000225
-84.97260284,-121.37075043,0.501831060000086
-84.9958725,-121.39810181,0.501831060000086
-84.97599792,-121.37361908,0.501953130000174
-84.96764374,-121.37151337,0.502197270000124
-84.97041321,-121.35856628,0.502319340000213
-84.99874878,-121.40081024,0.502441410000074
-84.96460724,-121.38736725,0.502441410000074
-84.96150208,-121.3763504,0.502563480000163
-84.98126984,-121.37812042,0.502685550000024
-84.96550751,-121.38568878,0.502685550000024
-84.96382904,-121.35282898,0.503051760000062
-84.96775818,-121.38587952,0.503051760000062
-84.98406219,-121.38543701,0.503173830000151
-84.98088837,-121.39769745,0.503173830000151
-84.9580307,-121.39488983,0.503173830000151
-84.9536972,-121.37206268,0.503295900000012
-84.96517944,-121.37197113,0.5034179700001
-84.95134735,-121.39060974,0.503540040000189
-84.95977783,-121.37042999,0.503540040000189
-84.97001648,-121.37069702,0.503784180000139
-84.97670746,-121.39687347,0.50390625
-84.9580307,-121.38889313,0.504028320000089
-84.95385742,-121.39408112,0.504394530000127
-84.96640778,-121.35951996,0.504394530000127
-84.99160767,-121.40557861,0.504516600000215
-84.98581696,-121.39936066,0.504516600000215
-84.96936035,-121.38852692,0.504516600000215
-84.97370148,-121.37373352,0.504638670000077
-84.99403381,-121.40677643,0.504638670000077
-84.9724884,-121.39354706,0.504760750000059
-84.95935059,-121.35572815,0.504760750000059
-84.97580719,-121.37404633,0.505004890000009
-84.97715759,-121.39492035,0.505126960000098
-84.95815277,-121.37999725,0.505371100000048
-84.95632935,-121.39177704,0.505371100000048
-84.95829773,-121.38918304,0.505493170000136
-84.96141052,-121.37727356,0.505615240000225
-84.95568085,-121.37181854,0.505615240000225
-84.98651886,-121.38509369,0.505737310000086
-84.96209717,-121.39199066,0.505859380000174
-84.98069,-121.3730011,0.505981450000036
-84.98435974,-121.3844986,0.505981450000036
-84.96365356,-121.39161682,0.506103520000124
-84.95317078,-121.35662842,0.506347660000074
-84.97872925,-121.39129639,0.506347660000074
-84.95664215,-121.37770844,0.506591800000024
-84.95287323,-121.35784912,0.506835940000201
-84.95014191,-121.35726929,0.506835940000201
-84.95658875,-121.39231873,0.506835940000201
-84.95197296,-121.377388,0.506958010000062
-84.97621155,-121.3723526,0.507202150000012
-84.97654724,-121.39389801,0.507202150000012
-84.98901367,-121.40139771,0.507202150000012
-84.96188354,-121.38572693,0.507202150000012
-84.9588089,-121.38974762,0.5073242200001
-84.98253632,-121.39437866,0.507446290000189
-84.96713257,-121.37294006,0.50756836000005
-84.98011017,-121.39343262,0.50756836000005
-84.97351074,-121.3741684,0.507690430000139
-84.95838165,-121.39222717,0.507690430000139
-84.95710754,-121.38912964,0.507690430000139
-84.97740936,-121.37693024,0.5078125
-84.95307922,-121.39582825,0.5078125
-84.96172333,-121.39124298,0.507934570000089
-84.96589661,-121.37198639,0.507934570000089
-84.97413635,-121.39296722,0.508056640000177
-84.9679718,-121.36804962,0.508056640000177
-84.95996857,-121.39135742,0.508178710000038
-84.98335266,-121.37975311,0.508789070000148
-84.97229004,-121.37078857,0.509033210000098
-84.9688797,-121.37404633,0.509033210000098
-84.98191833,-121.39334869,0.509277350000048
-84.96504974,-121.38775635,0.509399420000136
-84.98207092,-121.3748703,0.509521490000225
-84.96437073,-121.38369751,0.509521490000225
-84.96565247,-121.37758636,0.509521490000225
-84.97631073,-121.37171936,0.509643560000086
-84.96066284,-121.39269257,0.509643560000086
-84.97405243,-121.37193298,0.509887700000036
-84.95587158,-121.38030243,0.509887700000036
-84.97215271,-121.3870697,0.509887700000036
-84.98409271,-121.37724304,0.510131840000213
-84.95835876,-121.3571701,0.510131840000213
-84.95178223,-121.39099121,0.510253910000074
-84.95532227,-121.38751221,0.510375980000163
-84.98429108,-121.38433838,0.510498050000024
-84.9520874,-121.39678955,0.510620120000112
-84.95437622,-121.35370636,0.510620120000112
-84.97022247,-121.38642883,0.510742190000201
-84.95651245,-121.3948822,0.510742190000201
-84.97573853,-121.3863678,0.510864260000062
-84.97219849,-121.38358307,0.510986330000151
-84.9693222,-121.3883667,0.510986330000151
-84.96616364,-121.3684082,0.511108400000012
-84.96042633,-121.38340759,0.511108400000012
-84.96045685,-121.38942719,0.5112304700001
-84.98576355,-121.38655853,0.511352540000189
-84.95054626,-121.39141846,0.511962890000177
-84.95710754,-121.35632324,0.512084960000038
-84.96003723,-121.36102295,0.512084960000038
-84.95951843,-121.35915375,0.512207030000127
-84.95590973,-121.36253357,0.512329100000215
-84.96206665,-121.39183044,0.512451170000077
-84.95101929,-121.39523315,0.512451170000077
-84.96359253,-121.36837006,0.512573250000059
-84.96705627,-121.37275696,0.512573250000059
-84.95535278,-121.35649872,0.512573250000059
-84.9691391,-121.38813019,0.512695320000148
-84.98356628,-121.37851715,0.512939460000098
-84.98771667,-121.38864899,0.512939460000098
-84.96186066,-121.38832092,0.512939460000098
-84.95816803,-121.37918091,0.513061530000186
-84.95146179,-121.39302063,0.513183600000048
-84.97058105,-121.3671875,0.513305670000136
-84.96209717,-121.36392212,0.513427740000225
-84.9703064,-121.37741089,0.513793950000036
-84.95372009,-121.39646912,0.513793950000036
-84.96085358,-121.35613251,0.513916020000124
-84.9545517,-121.35334015,0.514160160000074
-84.96562958,-121.36966705,0.514404300000024
-84.96846008,-121.37470245,0.514404300000024
-84.98079681,-121.37876892,0.514648440000201
-84.96166992,-121.35388184,0.514648440000201
-84.96962738,-121.37941742,0.514648440000201
-84.95986938,-121.35532379,0.514892580000151
-84.95327759,-121.38967896,0.514892580000151
-84.96321106,-121.35241699,0.515014650000012
-84.97450256,-121.37830353,0.515014650000012
-84.96076965,-121.38700867,0.515014650000012
-84.97839355,-121.37210083,0.5151367200001
-84.96832275,-121.3835907,0.5151367200001
-84.96687317,-121.37320709,0.515258790000189
-84.96212006,-121.38585663,0.515258790000189
-84.96707153,-121.37439728,0.515258790000189
-84.98416138,-121.38391876,0.51538086000005
-84.96278381,-121.37072754,0.51538086000005
-84.95847321,-121.37827301,0.51538086000005
-84.98647308,-121.38394928,0.515502930000139
-84.96900177,-121.37657928,0.515502930000139
-84.97776794,-121.38266754,0.515991210000038
-84.96764374,-121.3735199,0.516235350000215
-84.95404053,-121.35707855,0.516357420000077
-84.97908783,-121.37674713,0.516601570000148
-84.96891022,-121.37325287,0.516601570000148
-84.96791077,-121.37982178,0.516723640000009
-84.97135162,-121.37271118,0.517333990000225
-84.95838928,-121.37795258,0.517333990000225
-84.98046875,-121.37975311,0.517456060000086
-84.98461151,-121.38246918,0.517700200000036
-84.98191833,-121.38430023,0.517700200000036
-84.96000671,-121.37223816,0.517700200000036
-84.9646225,-121.38384247,0.517700200000036
-84.95736694,-121.36190033,0.517822270000124
-84.96437836,-121.37729645,0.517822270000124
-84.95358276,-121.39024353,0.517944340000213
-84.96166992,-121.3525238,0.518066410000074
-84.96392822,-121.37049866,0.518432620000112
-84.9624176,-121.38342285,0.518554690000201
-84.96614075,-121.37117767,0.518676760000062
-84.96730804,-121.38179779,0.518676760000062
-84.97200012,-121.37097931,0.5190429700001
-84.97324371,-121.37326813,0.519165040000189
-84.96591187,-121.36791229,0.519165040000189
-84.95629883,-121.37779999,0.51928711000005
-84.96135712,-121.38436127,0.51928711000005
-84.96605682,-121.37728882,0.51928711000005
-84.954422,-121.36239624,0.51928711000005
-84.96399689,-121.3828125,0.51953125
-84.96795654,-121.37612915,0.519653320000089
-84.96381378,-121.38530731,0.519653320000089
-84.96045685,-121.37078094,0.519897460000038
-84.96099091,-121.39260864,0.519897460000038
-84.96071625,-121.38957977,0.520019530000127
-84.96520996,-121.37030029,0.520141600000215
-84.96092987,-121.38709259,0.520263670000077
-84.9786377,-121.37107849,0.520385750000059
-84.96269989,-121.3705368,0.520629890000009
-84.95645905,-121.35283661,0.520629890000009
-84.9800415,-121.38150024,0.520751960000098
-84.96588135,-121.37600708,0.520874030000186
-84.95475006,-121.38938141,0.520874030000186
-84.96858978,-121.3731308,0.521362310000086
-84.96098328,-121.38359833,0.521362310000086
-84.96382904,-121.38258362,0.521484380000174
-84.97358704,-121.37258911,0.521606450000036
-84.96320343,-121.3842926,0.521728520000124
-84.96459198,-121.39543152,0.521728520000124
-84.97535706,-121.37374115,0.521972660000074
-84.96555328,-121.37731934,0.521972660000074
-84.97103882,-121.37387085,0.522094730000163
-84.97895813,-121.37758636,0.522094730000163
-84.95039368,-121.39105988,0.522216800000024
-84.96643829,-121.38629913,0.522216800000024
-84.96070862,-121.36961365,0.522338870000112
-84.97051239,-121.38411713,0.522338870000112
-84.98631287,-121.383461,0.522460940000201
-84.97917938,-121.36884308,0.522583010000062
-84.95082855,-121.38883972,0.522583010000062
-84.95910645,-121.36450195,0.522705080000151
-84.9800415,-121.37299347,0.5229492200001
-84.95681763,-121.37551117,0.5229492200001
-84.95456696,-121.38313293,0.5229492200001
-84.95510101,-121.39218903,0.523071290000189
-84.96343994,-121.35765076,0.523681640000177
-84.96894073,-121.37245178,0.523803710000038
-84.97946167,-121.38252258,0.524047850000215
-84.96520233,-121.37780762,0.524169920000077
-84.96481323,-121.38069153,0.524292000000059
-84.96652222,-121.36853027,0.524414070000148
-84.95999146,-121.39434814,0.524414070000148
-84.97103882,-121.38143158,0.524536140000009
-84.95609283,-121.36196136,0.524536140000009
-84.95755768,-121.37297821,0.524902350000048
-84.9604187,-121.38587189,0.525024420000136
-84.97194672,-121.3860321,0.525146490000225
-84.98184967,-121.38300323,0.525390630000174
-84.96749115,-121.38217163,0.525390630000174
-84.95179749,-121.39047241,0.525512700000036
-84.98014069,-121.3723526,0.525756840000213
-84.9617691,-121.38497925,0.525756840000213
-84.95954895,-121.37277985,0.525878910000074
-84.96379089,-121.39115906,0.525878910000074
-84.96546173,-121.37666321,0.526123050000024
-84.97197723,-121.36992645,0.526245120000112
-84.95803833,-121.39122009,0.526489260000062
-84.97389221,-121.37055206,0.526611330000151
-84.962883,-121.37756348,0.526611330000151
-84.960289,-121.3914032,0.526733400000012
-84.95249939,-121.39154053,0.526733400000012
-84.98142242,-121.37484741,0.5268554700001
-84.97551727,-121.37223816,0.5268554700001
-84.95800018,-121.37026215,0.5268554700001
-84.96713257,-121.38115692,0.527221680000139
-84.98166656,-121.38346863,0.52734375
-84.96298218,-121.36901855,0.52734375
-84.95410156,-121.39394379,0.527587890000177
-84.95554352,-121.36076355,0.527709960000038
-84.9600296,-121.37911224,0.527709960000038
-84.96630859,-121.36228943,0.527954100000215
-84.96003723,-121.36090088,0.528076170000077
-84.98319244,-121.37851715,0.528198250000059
-84.96025085,-121.37867737,0.528198250000059
-84.97042847,-121.37140656,0.528198250000059
-84.96099091,-121.38947296,0.528198250000059
-84.95037079,-121.39064789,0.528564460000098
-84.96858215,-121.37335205,0.528808600000048
-84.9611969,-121.38699341,0.528808600000048
-84.95810699,-121.38800049,0.528808600000048
-84.95897675,-121.37507629,0.528930670000136
-84.98461151,-121.37307739,0.529052740000225
-84.95581818,-121.35946655,0.529174810000086
-84.97116089,-121.37227631,0.529296880000174
-84.96214294,-121.39134216,0.529418950000036
-84.96910095,-121.35864258,0.529541020000124
-84.97499084,-121.3735199,0.529663090000213
-84.98091125,-121.37740326,0.529663090000213
-84.95723724,-121.36174774,0.529785160000074
-84.96340942,-121.38108826,0.529785160000074
-84.98407745,-121.38287354,0.529907230000163
-84.95304108,-121.39237976,0.529907230000163
-84.96212006,-121.38858795,0.530151370000112
-84.9613266,-121.37256622,0.530151370000112
-84.97235107,-121.37557983,0.530273440000201
-84.96053314,-121.37391663,0.5307617200001
-84.96051788,-121.37718201,0.5307617200001
-84.96882629,-121.37219238,0.53100586000005
-84.96523285,-121.37716675,0.53100586000005
-84.97537231,-121.38156128,0.53125
-84.95909119,-121.37445068,0.531494140000177
-84.98088074,-121.37732697,0.531616210000038
-84.96147919,-121.38445282,0.531616210000038
-84.95709229,-121.38947296,0.531860350000215
-84.96153259,-121.38730621,0.531982420000077
-84.96109772,-121.37554932,0.532104500000059
-84.95864105,-121.38584137,0.532348640000009
-84.96507263,-121.38047028,0.532348640000009
-84.95606232,-121.39341736,0.532836920000136
-84.98361206,-121.38437653,0.532958990000225
-84.96888733,-121.37133026,0.533325200000036
-84.96227264,-121.35955048,0.533325200000036
-84.96056366,-121.35823822,0.533447270000124
-84.96378326,-121.38475037,0.533447270000124
-84.98262787,-121.37970734,0.533569340000213
-84.97696686,-121.38317871,0.533569340000213
-84.95915222,-121.38639832,0.533813480000163
-84.98484039,-121.38790894,0.534057620000112
-84.97463226,-121.3744278,0.534423830000151
-84.95832062,-121.37705231,0.534545900000012
-84.9585495,-121.38516998,0.53491211000005
-84.95411682,-121.39028931,0.53515625
-84.95970917,-121.38005066,0.535400390000177
-84.97512054,-121.38169861,0.535522460000038
-84.96334839,-121.38149261,0.535522460000038
-84.97717285,-121.38178253,0.535766600000215
-84.95320892,-121.36042786,0.535766600000215
-84.97267914,-121.37770844,0.535888670000077
-84.95963287,-121.38420868,0.535888670000077
-84.96298981,-121.38950348,0.536132820000148
-84.95745087,-121.3865509,0.536132820000148
-84.95546722,-121.39266205,0.536132820000148
-84.96102142,-121.35865021,0.536499030000186
-84.98455048,-121.38047028,0.536621100000048
-84.96524811,-121.38967896,0.536621100000048
-84.96363068,-121.3752594,0.536865240000225
-84.95993042,-121.39051819,0.536987310000086
-84.95172882,-121.39263153,0.536987310000086
-84.96533203,-121.3861618,0.536987310000086
-84.96469116,-121.36100006,0.537109380000174
-84.96138763,-121.37509155,0.537231450000036
-84.95127106,-121.38909149,0.537231450000036
-84.95612335,-121.38796997,0.537353520000124
-84.970047,-121.37677765,0.537719730000163
-84.96102905,-121.37523651,0.537719730000163
-84.95529175,-121.38916779,0.537841800000024
-84.9571991,-121.36022949,0.537963870000112
-84.98523712,-121.37770844,0.538208010000062
-84.95596313,-121.37687683,0.538330080000151
-84.97033691,-121.37982178,0.538330080000151
-84.96325684,-121.38378143,0.538452150000012
-84.97149658,-121.37058258,0.5385742200001
-84.97187805,-121.37944794,0.5385742200001
-84.96302032,-121.38050079,0.5385742200001
-84.97679901,-121.38378143,0.53881836000005
-84.96647644,-121.36759949,0.53881836000005
-84.96276855,-121.3742218,0.538940430000139
-84.96495056,-121.35970306,0.5390625
-84.97270203,-121.37387848,0.539184570000089
-84.98648071,-121.38124847,0.539184570000089
-84.96614838,-121.38552094,0.539184570000089
-84.955513,-121.38694,0.539184570000089
-84.95757294,-121.37854004,0.539550780000127
-84.95401764,-121.38709259,0.540039070000148
-84.95822906,-121.39093018,0.540039070000148
-84.97988129,-121.3789978,0.540161140000009
-84.97576141,-121.37882996,0.540161140000009
-84.97757721,-121.38024139,0.540161140000009
-84.95645142,-121.35137939,0.540161140000009
-84.95472717,-121.36183167,0.540771490000225
-84.95078278,-121.36418915,0.540893560000086
-84.97155762,-121.36971283,0.541015630000174
-84.96444702,-121.38567352,0.541137700000036
-84.96929932,-121.37502289,0.541259770000124
-84.96975708,-121.36724091,0.541625980000163
-84.96338654,-121.38986206,0.541625980000163
-84.96005249,-121.3875885,0.541748050000024
-84.97769928,-121.37963104,0.542236330000151
-84.96272278,-121.38580322,0.542236330000151
-84.95054626,-121.39060974,0.542236330000151
-84.95980835,-121.3549118,0.542602540000189
-84.96405792,-121.37863922,0.543090820000089
-84.97200012,-121.36824799,0.543212890000177
-84.97515106,-121.37802124,0.543212890000177
-84.96363068,-121.38413239,0.543212890000177
-84.95565033,-121.36135101,0.543334960000038
-84.96276855,-121.38883209,0.543457030000127
-84.96246338,-121.37763214,0.543945320000148
-84.96614075,-121.37198639,0.544067390000009
-84.95658875,-121.39111328,0.544067390000009
-84.97808838,-121.37792206,0.544677740000225
-84.96431732,-121.38246155,0.545043950000036
-84.97554016,-121.3792038,0.545166020000124
-84.96750641,-121.37056732,0.545166020000124
-84.95976257,-121.36029053,0.545288090000213
-84.97585297,-121.36965942,0.545532230000163
-84.97971344,-121.37960052,0.545532230000163
-84.97892761,-121.37464142,0.545776370000112
-84.95748138,-121.35623169,0.545898440000201
-84.96317291,-121.37464905,0.546142580000151
-84.95063782,-121.38791656,0.546264650000012
-84.96764374,-121.37439728,0.5463867200001
-84.95456696,-121.36112213,0.546508790000189
-84.96131897,-121.38925934,0.546508790000189
-84.96196747,-121.38755798,0.546752930000139
-84.95420074,-121.38745117,0.546752930000139
-84.96437836,-121.38249207,0.546997070000089
-84.9524765,-121.36379242,0.547119140000177
-84.96379089,-121.38696289,0.547485350000215
-84.95861053,-121.35945892,0.547729500000059
-84.9686203,-121.37055969,0.547973640000009
-84.95581818,-121.36035156,0.548217780000186
-84.962677,-121.38864136,0.548217780000186
-84.96691895,-121.36858368,0.548706060000086
-84.98071289,-121.37593842,0.548828130000174
-84.95339203,-121.3657608,0.548950200000036
-84.9813385,-121.3826828,0.549316410000074
-84.97609711,-121.3771286,0.549316410000074
-84.96530151,-121.37481689,0.549316410000074
-84.95848846,-121.38807678,0.549316410000074
-84.95054626,-121.39021301,0.549316410000074
-84.95065308,-121.36515045,0.549560550000024
-84.95052338,-121.3874588,0.549560550000024
-84.97757721,-121.37935638,0.549682620000112
-84.96601868,-121.37864685,0.549804690000201
-84.96534729,-121.3841095,0.549926760000062
