"X","Y","Z"
-84.99973297,-121.35746765,0
-84.99755096,-121.35980988,0.000610350000215476
-84.99685669,-121.35299683,0.00146485000004759
-84.99878693,-121.37828827,0.00158692000013616
-84.99687958,-121.35601044,0.00170899000022473
-84.98986816,-121.3660202,0.00292969000020094
-84.99652863,-121.36872864,0.0031738300001507
-84.99403381,-121.3578186,0.00341797000010047
-84.98901367,-121.37071991,0.00341797000010047
-84.99234772,-121.37299347,0.00354004000018904
-84.9989624,-121.35269928,0.00390625
-84.99169922,-121.36868286,0.00415039000017714
-84.99568176,-121.36598969,0.00427246000003834
-84.99346161,-121.36882782,0.00451660000021548
-84.99739075,-121.35384369,0.00463867000007667
-84.98899078,-121.37918091,0.00476075000005949
-84.9967804,-121.36508179,0.00500489000000925
-84.97931671,-121.3658371,0.00512696000009782
-84.99529266,-121.37449646,0.00512696000009782
-84.99062347,-121.37011719,0.00512696000009782
-84.98861694,-121.36995697,0.00512696000009782
-84.99929047,-121.37155914,0.00537110000004759
-84.99253845,-121.35521698,0.00537110000004759
-84.97708893,-121.3602829,0.00537110000004759
-84.99172211,-121.37883759,0.00549317000013616
-84.9757309,-121.353508,0.00610352000012426
-84.98667145,-121.38036346,0.0064697300001626
-84.99578094,-121.37532043,0.00683594000020094
-84.9782486,-121.3621521,0.00683594000020094
-84.97937012,-121.37026215,0.00695801000006213
-84.97914886,-121.36631012,0.0070800800001507
-84.99780273,-121.36895752,0.0072021500000119
-84.97605896,-121.3613205,0.00732422000010047
-84.99282837,-121.35227203,0.00732422000010047
-84.99458313,-121.39858246,0.00732422000010047
-84.98029327,-121.36833954,0.00744629000018904
-84.97650909,-121.37180328,0.00744629000018904
-84.96765137,-121.3576889,0.00756836000005023
-84.99799347,-121.36672974,0.00793457000008857
-84.98282623,-121.36193085,0.00805664000017714
-84.99111176,-121.38091278,0.00805664000017714
-84.99662018,-121.36186218,0.00805664000017714
-84.97200012,-121.3506012,0.00805664000017714
-84.9777298,-121.35582733,0.00817871000003834
-84.97535706,-121.35427094,0.00842285000021548
-84.99516296,-121.36476135,0.00878907000014806
-84.98497772,-121.36672211,0.00878907000014806
-84.983078,-121.39415741,0.00891114000000925
-84.98610687,-121.40366364,0.00891114000000925
-84.98970032,-121.35204315,0.00903321000009782
-84.96360016,-121.36408997,0.00903321000009782
-84.97924805,-121.37905884,0.00903321000009782
-84.99539948,-121.37155914,0.00915528000018639
-84.99201202,-121.35072327,0.00915528000018639
-84.97891998,-121.39935303,0.00927735000004759
-84.98246765,-121.40213776,0.00927735000004759
-84.98558044,-121.35926056,0.00939942000013616
-84.97865295,-121.35175323,0.00952149000022473
-84.97811127,-121.36493683,0.00952149000022473
-84.97939301,-121.35758972,0.00952149000022473
-84.970047,-121.36898041,0.00952149000022473
-84.99717712,-121.37145233,0.00964356000008593
-84.98783112,-121.40431976,0.00964356000008593
-84.97193909,-121.35875702,0.0097656300001745
-84.98571014,-121.38323975,0.0097656300001745
-84.98473358,-121.40232849,0.0097656300001745
-84.96981812,-121.35842133,0.00988770000003569
-84.98812866,-121.37174988,0.00988770000003569
-84.99758148,-121.36321259,0.0100097700001243
-84.98670197,-121.39972687,0.0100097700001243
-84.9728775,-121.39260101,0.0100097700001243
-84.9673233,-121.35868073,0.0101318400002128
-84.99562836,-121.37937927,0.0101318400002128
-84.98946381,-121.37084961,0.0101318400002128
-84.97003937,-121.36617279,0.0101318400002128
-84.9591217,-121.36344147,0.010253910000074
-84.98478699,-121.36974335,0.010253910000074
-84.98397064,-121.38973236,0.010253910000074
-84.99035645,-121.41081238,0.0103759800001626
-84.96827698,-121.37869263,0.0103759800001626
-84.97795105,-121.37050629,0.0104980500000238
-84.98384857,-121.40426636,0.0104980500000238
-84.99339294,-121.3528595,0.0106201200001124
-84.98285675,-121.3848877,0.0106201200001124
-84.97569275,-121.36425781,0.0106201200001124
-84.97418976,-121.38318634,0.0106201200001124
-84.96385956,-121.36295319,0.0107421900002009
-84.99008179,-121.40802765,0.0107421900002009
-84.97550964,-121.35388947,0.0108642600000621
-84.98448944,-121.39305115,0.0108642600000621
-84.99001312,-121.35112762,0.0109863300001507
-84.95079041,-121.35288239,0.0109863300001507
-84.98017883,-121.40878296,0.0109863300001507
-84.97470093,-121.40113831,0.0109863300001507
-84.9875412,-121.36875916,0.0111084000000119
-84.98220825,-121.36399078,0.0111084000000119
-84.97207642,-121.39131927,0.0111084000000119
-84.99263763,-121.40190125,0.0111084000000119
-84.98938751,-121.38625336,0.0112304700001005
-84.98840332,-121.37203979,0.011352540000189
-84.977211,-121.396492,0.011352540000189
-84.96900177,-121.39234161,0.011352540000189
-84.97865295,-121.37294006,0.011352540000189
-84.97215271,-121.35736847,0.0114746100000502
-84.99762726,-121.3632431,0.0114746100000502
-84.98963165,-121.36165619,0.0115966800001388
-84.97676849,-121.36611938,0.0115966800001388
-84.95803833,-121.35952759,0.0115966800001388
-84.9797287,-121.35578918,0.01171875
-84.95313263,-121.35349274,0.01171875
-84.99794006,-121.37857056,0.01171875
-84.99968719,-121.37217712,0.0118408200000886
-84.97010803,-121.39118195,0.0118408200000886
-84.99236298,-121.41148376,0.0118408200000886
-84.96685028,-121.35170746,0.0118408200000886
-84.98963928,-121.41184235,0.0118408200000886
-84.99111938,-121.3638916,0.0119628900001771
-84.95011139,-121.35413361,0.0119628900001771
-84.98017883,-121.41155243,0.0119628900001771
-84.98771667,-121.3758316,0.0120849600000383
-84.99105072,-121.38816833,0.0120849600000383
-84.96092987,-121.36605835,0.0120849600000383
-84.96749115,-121.39598846,0.0120849600000383
-84.96887207,-121.38744354,0.0120849600000383
-84.98725891,-121.40632629,0.0123291000002155
-84.97236633,-121.39543915,0.0123291000002155
-84.97849274,-121.3682785,0.0124511700000767
-84.9645462,-121.36019135,0.0124511700000767
-84.9542923,-121.36486816,0.0124511700000767
-84.97001648,-121.36891174,0.0124511700000767
-84.98236084,-121.40167999,0.0125732500000595
-84.98284149,-121.38053131,0.0125732500000595
-84.99372864,-121.35437775,0.0126953200001481
-84.96550751,-121.39584351,0.0126953200001481
-84.99108887,-121.37352753,0.0128173900000093
-84.97281647,-121.39215851,0.0128173900000093
-84.96868896,-121.36305237,0.0128173900000093
-84.99118805,-121.35565948,0.0129394600000978
-84.97905731,-121.39916992,0.0129394600000978
-84.96774292,-121.393013,0.0129394600000978
-84.96398163,-121.3962326,0.0129394600000978
-84.96690369,-121.3547287,0.0129394600000978
-84.99700165,-121.36221313,0.0130615300001864
-84.97731018,-121.35649109,0.0131836000000476
-84.98137665,-121.37602997,0.0133056700001362
-84.97171021,-121.39382935,0.0133056700001362
-84.97039032,-121.39298248,0.0133056700001362
-84.96849823,-121.37857819,0.0134277400002247
-84.99777985,-121.37808228,0.0135498100000859
-84.99063873,-121.39940643,0.0135498100000859
-84.98153687,-121.36580658,0.0136718800001745
-84.9524231,-121.35164642,0.0136718800001745
-84.98375702,-121.36493683,0.0136718800001745
-84.97913361,-121.36959076,0.0136718800001745
-84.99124908,-121.40390015,0.0137939500000357
-84.96199036,-121.39633179,0.0137939500000357
-84.96698761,-121.36078644,0.0137939500000357
-84.9696579,-121.35037994,0.0139160200001243
-84.99978638,-121.37824249,0.0139160200001243
-84.96587372,-121.3555069,0.0140380900002128
-84.96943665,-121.3809433,0.0140380900002128
-84.98551178,-121.35909271,0.014160160000074
-84.96002197,-121.36054993,0.014160160000074
-84.98665619,-121.40505219,0.014160160000074
-84.96645355,-121.40335083,0.014160160000074
-84.99105072,-121.40664673,0.0142822300001626
-84.98951721,-121.4070282,0.0142822300001626
-84.9569397,-121.36296844,0.0144043000000238
-84.98449707,-121.37830353,0.0144043000000238
-84.98085785,-121.39907837,0.0144043000000238
-84.97490692,-121.38855743,0.0144043000000238
-84.98430634,-121.38079834,0.0146484400002009
-84.95913696,-121.3946228,0.0146484400002009
-84.97862244,-121.3728714,0.0146484400002009
-84.9992981,-121.3624115,0.0147705100000621
-84.97828674,-121.36477661,0.0147705100000621
-84.97309113,-121.39270782,0.0147705100000621
-84.98343658,-121.35897827,0.0148925800001507
-84.97315979,-121.36238861,0.0148925800001507
-84.95453644,-121.36370087,0.0148925800001507
-84.95040894,-121.35153961,0.0148925800001507
-84.99465942,-121.40895081,0.0148925800001507
-84.98925781,-121.39774323,0.0148925800001507
-84.99064636,-121.41464233,0.0148925800001507
-84.9707489,-121.36186218,0.0150146500000119
-84.99308014,-121.36361694,0.0150146500000119
-84.96360016,-121.39547729,0.0150146500000119
-84.98934937,-121.36791229,0.0151367200001005
-84.97554016,-121.3936615,0.0151367200001005
-84.96974945,-121.39069366,0.0151367200001005
-84.96942139,-121.36035156,0.015258790000189
-84.97097778,-121.3686676,0.015258790000189
-84.98930359,-121.37741852,0.0153808600000502
-84.96273804,-121.35891724,0.0153808600000502
-84.99494934,-121.37336731,0.0153808600000502
-84.96755981,-121.39629364,0.0153808600000502
-84.9826889,-121.36012268,0.0155029300001388
-84.9713974,-121.39859772,0.0155029300001388
-84.98007202,-121.39038086,0.0155029300001388
-84.9910965,-121.35532379,0.015625
-84.95159912,-121.36556244,0.015625
-84.96748352,-121.36345673,0.015625
-84.98703003,-121.39473724,0.0157470700000886
-84.98432922,-121.37454224,0.0157470700000886
-84.96096802,-121.39846802,0.0157470700000886
-84.9941864,-121.40567017,0.0158691400001771
-84.99289703,-121.40933228,0.0158691400001771
-84.98744965,-121.38214874,0.0158691400001771
-84.99742126,-121.39759827,0.0158691400001771
-84.99999237,-121.36048126,0.0159912100000383
-84.98700714,-121.38202667,0.0159912100000383
-84.98590851,-121.36480713,0.0161132800001269
-84.95735168,-121.36128235,0.0161132800001269
-84.98690033,-121.40283966,0.0161132800001269
-84.96627808,-121.3969574,0.0161132800001269
-84.96626282,-121.37892914,0.0161132800001269
-84.97458649,-121.38272858,0.0161132800001269
-84.97872162,-121.35655212,0.0162353500002155
-84.97627258,-121.35585785,0.0162353500002155
-84.96144104,-121.40109253,0.0162353500002155
-84.99929047,-121.35053253,0.0163574200000767
-84.95987701,-121.35997772,0.0163574200000767
-84.97113037,-121.38957214,0.0163574200000767
-84.97135925,-121.39308929,0.0163574200000767
-84.96884918,-121.35275269,0.0164795000000595
-84.98097992,-121.36627197,0.0164795000000595
-84.99159241,-121.40396881,0.0164795000000595
-84.97801971,-121.39463043,0.0166015700001481
-84.96185303,-121.39285278,0.0166015700001481
-84.97380829,-121.39079285,0.0167236400000093
-84.98680878,-121.37851715,0.0168457100000978
-84.95614624,-121.40168762,0.0168457100000978
-84.99736786,-121.4104538,0.0169677800001864
-84.95973206,-121.36282349,0.0169677800001864
-84.96520233,-121.40351105,0.0169677800001864
-84.99404144,-121.41651154,0.0169677800001864
-84.97855377,-121.35888672,0.0170898500000476
-84.96102142,-121.39730835,0.0173339900002247
-84.9508667,-121.4052887,0.0174560600000859
-84.95065308,-121.40804291,0.0174560600000859
-84.97971344,-121.38710022,0.0174560600000859
-84.97987366,-121.36167908,0.0175781300001745
-84.97499084,-121.39457703,0.0175781300001745
-84.97480011,-121.36424255,0.0177002000000357
-84.98766327,-121.39173126,0.0177002000000357
-84.95393372,-121.3657608,0.0177002000000357
-84.97142029,-121.39286804,0.0178222700001243
-84.95793152,-121.39858246,0.0178222700001243
-84.99333954,-121.37111664,0.0179443400002128
-84.98651123,-121.40209198,0.0179443400002128
-84.97341919,-121.39302826,0.0179443400002128
-84.96217346,-121.38294983,0.0179443400002128
-84.97138977,-121.36749268,0.018066410000074
-84.97633362,-121.35263062,0.018066410000074
-84.97120667,-121.39562225,0.018066410000074
-84.96946716,-121.36685944,0.0181884800001626
-84.96404266,-121.36160278,0.0181884800001626
-84.95594025,-121.39842987,0.0181884800001626
-84.96869659,-121.36190796,0.0183105500000238
-84.99343109,-121.36502075,0.0183105500000238
-84.99111176,-121.39481354,0.0185546900002009
-84.95760345,-121.36010742,0.0185546900002009
-84.97940063,-121.39376068,0.0185546900002009
-84.9695816,-121.35021973,0.0186767600000621
-84.9887619,-121.39579773,0.0187988300001507
-84.99539185,-121.40756226,0.0187988300001507
-84.96634674,-121.39398956,0.0189209000000119
-84.97971344,-121.3611908,0.0190429700001005
-84.98562622,-121.36602783,0.019165040000189
-84.98709106,-121.39128876,0.019165040000189
-84.98941803,-121.36089325,0.0192871100000502
-84.9503479,-121.36950684,0.0192871100000502
-84.96511841,-121.35826874,0.0194091800001388
-84.97991943,-121.35543823,0.0194091800001388
-84.99668884,-121.35043335,0.01953125
-84.96283722,-121.3942337,0.01953125
-84.95755768,-121.40084076,0.01953125
-84.98542023,-121.35148621,0.0196533200000886
-84.96972656,-121.35832214,0.0196533200000886
-84.99613953,-121.36868286,0.0196533200000886
-84.9540863,-121.36540222,0.0196533200000886
-84.99256134,-121.4056015,0.0196533200000886
-84.98809814,-121.4017334,0.0196533200000886
-84.98274994,-121.39630127,0.0196533200000886
-84.97676849,-121.3925705,0.0196533200000886
-84.98062134,-121.36578369,0.0197753900001771
-84.95760345,-121.4036026,0.0197753900001771
-84.9814682,-121.35180664,0.0198974600000383
-84.96238708,-121.39044189,0.0198974600000383
-84.99101257,-121.36134338,0.0200195300001269
-84.96144867,-121.35414124,0.0201416000002155
-84.97554779,-121.38526154,0.0201416000002155
-84.96279907,-121.35820007,0.0202636700000767
-84.98085022,-121.36305237,0.0202636700000767
-84.98451233,-121.38564301,0.0202636700000767
-84.98776245,-121.42115021,0.0202636700000767
-84.98052216,-121.3598938,0.0203857500000595
-84.95317841,-121.40576935,0.0203857500000595
-84.99117279,-121.39395905,0.0205078200001481
-84.98732758,-121.3927002,0.0206298900000093
-84.95491791,-121.4029007,0.0206298900000093
-84.96896362,-121.39917755,0.0206298900000093
-84.9868927,-121.36109924,0.0207519600000978
-84.99188995,-121.40180206,0.0207519600000978
-84.97022247,-121.39658356,0.0207519600000978
-84.9600296,-121.40180206,0.0207519600000978
-84.96022797,-121.3960495,0.0208740300001864
-84.95089722,-121.36728668,0.0209961000000476
-84.9968338,-121.36431885,0.0209961000000476
-84.95762634,-121.40361786,0.0209961000000476
-84.97444153,-121.40042877,0.0211181700001362
-84.9624176,-121.39372253,0.0211181700001362
-84.96878052,-121.35257721,0.0212402400002247
-84.9911499,-121.38652039,0.0212402400002247
-84.97634125,-121.36685181,0.0213623100000859
-84.96794128,-121.3719101,0.0213623100000859
-84.98629761,-121.39008331,0.0213623100000859
-84.96128845,-121.38912201,0.0213623100000859
-84.96941376,-121.35933685,0.0214843800001745
-84.97460175,-121.38890839,0.0214843800001745
-84.95317841,-121.4030304,0.0214843800001745
-84.98120117,-121.38977051,0.0217285200001243
-84.9650116,-121.3640213,0.0218505900002128
-84.99816132,-121.36869049,0.021972660000074
-84.98190308,-121.39199829,0.021972660000074
-84.9859314,-121.39508057,0.0220947300001626
-84.97531891,-121.39600372,0.0220947300001626
-84.96936035,-121.39527893,0.0220947300001626
-84.99282837,-121.39711761,0.0222168000000238
-84.96233368,-121.35106659,0.0223388700001124
-84.9592514,-121.35349274,0.0223388700001124
-84.96453857,-121.35929108,0.0223388700001124
-84.9852829,-121.35218048,0.0224609400002009
-84.98053741,-121.36006165,0.0224609400002009
-84.99014282,-121.36573029,0.0224609400002009
-84.99210358,-121.39112854,0.0224609400002009
-84.95342255,-121.36721802,0.0224609400002009
-84.97824097,-121.35561371,0.0224609400002009
-84.99475861,-121.3806076,0.0225830100000621
-84.96005249,-121.39581299,0.0225830100000621
-84.97879028,-121.39324951,0.0225830100000621
-84.99862671,-121.36448669,0.0227050800001507
-84.99330139,-121.3588028,0.0227050800001507
-84.95874786,-121.39971924,0.0228271500000119
-84.96954346,-121.3661499,0.0229492200001005
-84.98725891,-121.36911774,0.023071290000189
-84.98858643,-121.39354706,0.023071290000189
-84.99777222,-121.40931702,0.023071290000189
-84.95819855,-121.36296082,0.0231933600000502
-84.97924042,-121.3752594,0.0233154300001388
-84.96147156,-121.36295319,0.0234375
-84.97917175,-121.38706207,0.0234375
-84.95018005,-121.3688736,0.0235595700000886
-84.96163177,-121.38291168,0.0236816400001771
-84.96552277,-121.35546112,0.0238037100000383
-84.95497894,-121.36122131,0.0238037100000383
-84.98551941,-121.3945694,0.0238037100000383
-84.96537781,-121.39222717,0.0238037100000383
-84.96122742,-121.3862915,0.0238037100000383
-84.9788208,-121.38726807,0.0239257800001269
-84.96897888,-121.39453125,0.0240478500002155
-84.97044373,-121.37052155,0.0241699200000767
-84.95881653,-121.40576935,0.0241699200000767
-84.95894623,-121.39122772,0.0241699200000767
-84.96440125,-121.40348816,0.0241699200000767
-84.95922852,-121.40052795,0.0242920000000595
-84.97357178,-121.36772919,0.0242920000000595
-84.96230316,-121.39024353,0.0244140700001481
-84.96894073,-121.36084747,0.0245361400000093
-84.99875641,-121.37535858,0.0245361400000093
-84.9749527,-121.37136078,0.0245361400000093
-84.96151733,-121.35343933,0.0246582100000978
-84.96054077,-121.39035797,0.0246582100000978
-84.99001312,-121.36643982,0.0247802800001864
-84.98526001,-121.36691284,0.0247802800001864
-84.97827148,-121.39050293,0.0247802800001864
-84.99604797,-121.36109161,0.0249023500000476
-84.99452209,-121.39922333,0.0250244200001362
-84.98107147,-121.37818909,0.0250244200001362
-84.97621155,-121.38583374,0.0250244200001362
-84.9519577,-121.40072632,0.0250244200001362
-84.96568298,-121.36357117,0.0250244200001362
-84.98751831,-121.39199066,0.0251464900002247
-84.97402954,-121.38491058,0.0251464900002247
-84.96086884,-121.38021851,0.0251464900002247
-84.98455811,-121.35375214,0.0252685600000859
-84.97982025,-121.3616333,0.0252685600000859
-84.99130249,-121.36895752,0.0253906300001745
-84.9799881,-121.38889313,0.0253906300001745
-84.96076965,-121.39414978,0.0253906300001745
-84.98275757,-121.39830017,0.0255127000000357
-84.98722839,-121.36903381,0.0256347700001243
-84.9654007,-121.35617065,0.0257568400002128
-84.96881866,-121.36772919,0.0257568400002128
-84.95818329,-121.4017334,0.0257568400002128
-84.96595764,-121.36096191,0.0257568400002128
-84.97576904,-121.37007904,0.0257568400002128
-84.98629761,-121.36332703,0.025878910000074
-84.95839691,-121.39898682,0.025878910000074
-84.96546173,-121.38900757,0.0260009800001626
-84.95836639,-121.39296722,0.0260009800001626
-84.96338654,-121.43109894,0.0260009800001626
-84.9682312,-121.36637878,0.0261230500000238
-84.96121979,-121.3886795,0.0262451200001124
-84.9886322,-121.3549118,0.0263671900002009
-84.96765137,-121.35594177,0.0263671900002009
-84.98625183,-121.39266205,0.0263671900002009
-84.95599365,-121.40106201,0.0263671900002009
-84.97006226,-121.37126923,0.0266113300001507
-84.98670959,-121.39019012,0.0266113300001507
-84.95924377,-121.38852692,0.0267334000000119
-84.97447968,-121.38295746,0.0268554700001005
-84.97384644,-121.38466644,0.0268554700001005
-84.97490692,-121.37126923,0.026977540000189
-84.98008728,-121.36595154,0.026977540000189
-84.96218109,-121.36036682,0.0270996100000502
-84.98679352,-121.35346985,0.0272216800001388
-84.97593689,-121.39662933,0.02734375
-84.97559357,-121.38179779,0.02734375
-84.96083069,-121.3941803,0.02734375
-84.97836304,-121.39781952,0.0274658200000886
-84.95908356,-121.3940506,0.0274658200000886
-84.9681778,-121.3634491,0.0275878900001771
-84.96482849,-121.3879776,0.0275878900001771
-84.95865631,-121.3995285,0.0275878900001771
-84.96788025,-121.37555695,0.0275878900001771
-84.97236633,-121.39434052,0.0277099600000383
-84.99429321,-121.39942169,0.0278320300001269
-84.99053955,-121.37156677,0.0279541000002155
-84.95844269,-121.39601135,0.0279541000002155
-84.97293091,-121.39190674,0.0279541000002155
-84.99610901,-121.40081024,0.0280761700000767
-84.96524811,-121.38601685,0.0280761700000767
-84.98609924,-121.39217377,0.0281982500000595
-84.98246765,-121.37758636,0.0281982500000595
-84.9615097,-121.38897705,0.0281982500000595
-84.97180939,-121.36515808,0.0281982500000595
-84.98297882,-121.39819336,0.0281982500000595
-84.98352051,-121.35742188,0.0283203200001481
-84.95774078,-121.38593292,0.0283203200001481
-84.97766876,-121.36942291,0.0283203200001481
-84.95070648,-121.36087036,0.0284423900000093
-84.98449707,-121.38703156,0.0285644600000978
-84.98742676,-121.3504715,0.0286865300001864
-84.95397949,-121.352211,0.0286865300001864
-84.9716568,-121.38452148,0.0286865300001864
-84.96009827,-121.38027954,0.0286865300001864
-84.96874237,-121.36865234,0.0288086000000476
-84.9577713,-121.35150909,0.0288086000000476
-84.96833801,-121.36019135,0.0288086000000476
-84.98816681,-121.36511993,0.0289306700001362
-84.97805023,-121.36798859,0.0289306700001362
-84.96459198,-121.35852051,0.0289306700001362
-84.97303009,-121.38313293,0.0289306700001362
-84.97158051,-121.37494659,0.0290527400002247
-84.97779083,-121.39929962,0.0290527400002247
-84.97631073,-121.38288879,0.0290527400002247
-84.96209717,-121.41060638,0.0290527400002247
-84.95877838,-121.43238831,0.0290527400002247
-84.97966766,-121.38491058,0.0291748100000859
-84.96240234,-121.38755798,0.0291748100000859
-84.96073151,-121.40573883,0.0291748100000859
-84.97930145,-121.39617157,0.0292968800001745
-84.96180725,-121.36112213,0.0294189500000357
-84.96922302,-121.37431335,0.0294189500000357
-84.95758057,-121.39797211,0.0294189500000357
-84.96894836,-121.3598938,0.0295410200001243
-84.95081329,-121.35707855,0.0295410200001243
-84.99530792,-121.39581299,0.0296630900002128
-84.97444153,-121.37278748,0.029785160000074
-84.95423889,-121.35424042,0.029785160000074
-84.98278046,-121.38716888,0.029785160000074
-84.96154785,-121.38273621,0.029785160000074
-84.9838562,-121.37973022,0.0299072300001626
-84.98235321,-121.37985992,0.0299072300001626
-84.96024323,-121.38990784,0.0299072300001626
-84.98323059,-121.38469696,0.0301513700001124
-84.98342133,-121.37268066,0.0302734400002009
-84.97688293,-121.38896942,0.0302734400002009
-84.9833374,-121.402771,0.0305175800001507
-84.95101166,-121.40223694,0.0305175800001507
-84.98114777,-121.40184784,0.0306396500000119
-84.97769928,-121.38201904,0.0310058600000502
-84.97171783,-121.37828827,0.0310058600000502
-84.95717621,-121.39093781,0.0310058600000502
-84.95703888,-121.38713837,0.0310058600000502
-84.98313904,-121.35816193,0.0311279300001388
-84.95353699,-121.35736847,0.0311279300001388
-84.98178864,-121.3971405,0.0311279300001388
-84.95526123,-121.40583801,0.0311279300001388
-84.96518707,-121.37622833,0.0311279300001388
-84.95675659,-121.39643097,0.03125
-84.98536682,-121.39743042,0.03125
-84.95648956,-121.38419342,0.03125
-84.98210907,-121.37384033,0.0313720700000886
-84.96138763,-121.38224792,0.0314941400001771
-84.96006775,-121.38941956,0.0314941400001771
-84.96105957,-121.41207123,0.0314941400001771
-84.97077179,-121.37731934,0.0316162100000383
-84.98674011,-121.40782166,0.0316162100000383
-84.98609924,-121.35521698,0.0318603500002155
-84.96425629,-121.3842392,0.0318603500002155
-84.96051788,-121.39347076,0.0318603500002155
-84.96911621,-121.37432098,0.0319824200000767
-84.96363068,-121.36141205,0.0319824200000767
-84.98017883,-121.38272858,0.0319824200000767
-84.96540833,-121.39396667,0.0319824200000767
-84.97598267,-121.38516235,0.0321045000000595
-84.96650696,-121.35926819,0.0322265700001481
-84.97693634,-121.37140656,0.0322265700001481
-84.98586273,-121.40325165,0.0322265700001481
-84.97984314,-121.40000916,0.0322265700001481
-84.95152283,-121.40280151,0.0322265700001481
-84.96800232,-121.36279297,0.0323486400000093
-84.97425842,-121.37325287,0.0323486400000093
-84.98815918,-121.37709045,0.0323486400000093
-84.97550964,-121.38162231,0.0323486400000093
-84.97274017,-121.39143372,0.0323486400000093
-84.95924377,-121.40039825,0.0323486400000093
-84.95819092,-121.41059875,0.0324707100000978
-84.99189758,-121.35858917,0.0325927800001864
-84.95420074,-121.35414124,0.0325927800001864
-84.95300293,-121.35030365,0.0325927800001864
-84.95839691,-121.40158844,0.0325927800001864
-84.99246216,-121.40142822,0.0325927800001864
-84.9839325,-121.37677002,0.0327148500000476
-84.95857239,-121.39308167,0.0327148500000476
-84.95836639,-121.36270142,0.0327148500000476
-84.95053864,-121.35671997,0.0328369200001362
-84.98339081,-121.39653778,0.0329589900002247
-84.97576141,-121.37863922,0.0329589900002247
-84.96826935,-121.38783264,0.0329589900002247
-84.98681641,-121.36898041,0.0332031300001745
-84.95681763,-121.39320374,0.0332031300001745
-84.96842194,-121.3685379,0.0333252000000357
-84.96134949,-121.41236877,0.0333252000000357
-84.96881104,-121.39865112,0.0333252000000357
-84.97199249,-121.37341309,0.0335693400002128
-84.98123169,-121.36813354,0.0335693400002128
-84.96974945,-121.37481689,0.0335693400002128
-84.97823334,-121.38585663,0.033691410000074
-84.98680115,-121.40458679,0.033691410000074
-84.95179749,-121.40309906,0.033691410000074
-84.98419952,-121.37378693,0.0338134800001626
-84.95391083,-121.38816071,0.0338134800001626
-84.986763,-121.40209198,0.0339355500000238
-84.95980072,-121.40673828,0.0339355500000238
-84.95982361,-121.38300323,0.0339355500000238
-84.96066284,-121.36051178,0.0340576200001124
-84.97721863,-121.39582062,0.0340576200001124
-84.95938873,-121.41197968,0.0340576200001124
-84.9747467,-121.37077332,0.0341796900002009
-84.98397064,-121.37052155,0.0343017600000621
-84.96379089,-121.36103058,0.0344238300001507
-84.98312378,-121.37822723,0.0344238300001507
-84.96127319,-121.39131165,0.0344238300001507
-84.97810364,-121.39945221,0.0344238300001507
-84.96096039,-121.39193726,0.0344238300001507
-84.99783325,-121.36878204,0.0345459000000119
-84.98150635,-121.36399078,0.0345459000000119
-84.9802475,-121.37650299,0.0345459000000119
-84.95513916,-121.39071655,0.0345459000000119
-84.9766922,-121.38024139,0.0346679700001005
-84.96898651,-121.38890839,0.0346679700001005
-84.96569824,-121.36164093,0.034790040000189
-84.99485016,-121.37168884,0.034790040000189
-84.98597717,-121.37068939,0.034790040000189
-84.98861694,-121.40750885,0.034790040000189
-84.98474121,-121.39617157,0.0349121100000502
-84.96206665,-121.41345215,0.0350341800001388
-84.98677063,-121.36376953,0.0350341800001388
-84.96051788,-121.36479187,0.0350341800001388
-84.98516083,-121.37489319,0.03515625
-84.98181152,-121.38240051,0.03515625
-84.98407745,-121.39186096,0.03515625
-84.95964813,-121.35955048,0.0352783200000886
-84.97914886,-121.38118744,0.0352783200000886
-84.98705292,-121.40213013,0.0354003900001771
-84.96063995,-121.36071014,0.0355224600000383
-84.96127319,-121.38530731,0.0355224600000383
-84.97149658,-121.38937378,0.0356445300001269
-84.99455261,-121.3653183,0.0357666000002155
-84.96575165,-121.38918304,0.0357666000002155
-84.95751953,-121.38852692,0.0357666000002155
-84.98790741,-121.40094757,0.0358886700000767
-84.96685028,-121.36723328,0.0360107500000595
-84.98226166,-121.37693787,0.0360107500000595
-84.96690369,-121.37359619,0.0361328200001481
-84.97016907,-121.39053345,0.0361328200001481
-84.96885681,-121.39118195,0.0361328200001481
-84.95892334,-121.39642334,0.0361328200001481
-84.98703003,-121.35128021,0.0362548900000093
-84.98957825,-121.37651062,0.0362548900000093
-84.99585724,-121.35199738,0.0363769600000978
-84.97808075,-121.3671875,0.0363769600000978
-84.97328186,-121.38926697,0.0363769600000978
-84.95496368,-121.35179138,0.0364990300001864
-84.98140717,-121.37837982,0.0364990300001864
-84.99176025,-121.40979004,0.0366211000000476
-84.98098755,-121.38387299,0.0366211000000476
-84.98387146,-121.38559723,0.0368652400002247
-84.98822021,-121.40701294,0.0368652400002247
-84.95343781,-121.40577698,0.0368652400002247
-84.95987701,-121.41004944,0.0368652400002247
-84.9805069,-121.36843872,0.0368652400002247
-84.95275879,-121.36135101,0.0368652400002247
-84.98519135,-121.37516785,0.0369873100000859
-84.98153687,-121.39946747,0.0371093800001745
-84.96047211,-121.35623932,0.0372314500000357
-84.95778656,-121.38881683,0.0372314500000357
-84.98928833,-121.40309143,0.0373535200001243
-84.96468353,-121.38735962,0.0373535200001243
-84.98046875,-121.36766815,0.0374755900002128
-84.95825195,-121.39261627,0.0374755900002128
-84.95121765,-121.40560913,0.0374755900002128
-84.99999237,-121.36949158,0.037597660000074
-84.97666931,-121.39457703,0.037597660000074
-84.97177887,-121.38967896,0.037597660000074
-84.95919037,-121.39671326,0.037597660000074
-84.96465302,-121.37896729,0.037597660000074
-84.99742889,-121.35469055,0.0377197300001626
-84.98847961,-121.3686676,0.0377197300001626
-84.96733856,-121.38883209,0.0377197300001626
-84.96749878,-121.37162018,0.0378418000000238
-84.95294189,-121.35813141,0.0378418000000238
-84.98896027,-121.3722229,0.0378418000000238
-84.98873138,-121.37521362,0.0378418000000238
-84.98570251,-121.3915329,0.0379638700001124
-84.95762634,-121.35202026,0.0382080100000621
-84.96887207,-121.38870239,0.0382080100000621
-84.95935822,-121.38845825,0.0382080100000621
-84.95999908,-121.3620224,0.0382080100000621
-84.98281097,-121.38378143,0.0383300800001507
-84.97205353,-121.37270355,0.0384521500000119
-84.96217346,-121.41351318,0.0384521500000119
-84.9932785,-121.35321045,0.0385742200001005
-84.98809814,-121.37718201,0.0385742200001005
-84.96920776,-121.37378693,0.038696290000189
-84.96190643,-121.35890198,0.038696290000189
-84.96125793,-121.39508057,0.038696290000189
-84.97527313,-121.37316895,0.0388183600000502
-84.97712708,-121.37008667,0.0389404300001388
-84.98885345,-121.39656067,0.0389404300001388
-84.98716736,-121.40519714,0.0389404300001388
-84.9620285,-121.38667297,0.0389404300001388
-84.95173645,-121.40592957,0.0389404300001388
-84.98906708,-121.39055634,0.0390625
-84.96012878,-121.40132141,0.0390625
-84.95970154,-121.39727783,0.0390625
-84.98101807,-121.4016037,0.0390625
-84.9888916,-121.40258026,0.0391845700000886
-84.9629364,-121.38474274,0.0391845700000886
-84.95986176,-121.36006165,0.0393066400001771
-84.9916687,-121.37345886,0.0393066400001771
-84.97824097,-121.39447021,0.0393066400001771
-84.96633911,-121.39922333,0.0393066400001771
-84.95787048,-121.35198212,0.0394287100000383
-84.95716858,-121.35822296,0.0394287100000383
-84.98461151,-121.38043213,0.0394287100000383
-84.98982239,-121.40039825,0.0394287100000383
-84.96492004,-121.38514709,0.0394287100000383
-84.96095276,-121.3878479,0.0394287100000383
-84.99124908,-121.37568665,0.0395507800001269
-84.9905777,-121.37789154,0.0395507800001269
-84.9615097,-121.36129761,0.0396728500002155
-84.96869659,-121.38820648,0.0396728500002155
-84.98774719,-121.39172363,0.0397949200000767
-84.962883,-121.41458893,0.0399170000000595
-84.95465851,-121.360672,0.0399170000000595
-84.98326874,-121.37206268,0.0400390700001481
-84.99317932,-121.41220856,0.0400390700001481
-84.98519897,-121.35738373,0.0404052800001864
-84.95854187,-121.3901825,0.0405273500000476
-84.96025848,-121.41313934,0.0405273500000476
-84.98976898,-121.38863373,0.0406494200001362
-84.96365356,-121.38907623,0.0406494200001362
-84.96134186,-121.40895844,0.0406494200001362
-84.97994232,-121.368927,0.0407714900002247
-84.97202301,-121.37261963,0.0407714900002247
-84.9591217,-121.35228729,0.0407714900002247
-84.99092102,-121.39322662,0.0407714900002247
-84.95954895,-121.40306091,0.0407714900002247
-84.99342346,-121.40622711,0.0408935600000859
-84.98549652,-121.37927246,0.0408935600000859
-84.96366119,-121.38583374,0.0408935600000859
-84.9575119,-121.39713287,0.0408935600000859
-84.99282837,-121.37532806,0.0410156300001745
-84.99085999,-121.37493134,0.0410156300001745
-84.95961761,-121.4151001,0.0410156300001745
-84.96681976,-121.37342072,0.0411377000000357
-84.97432709,-121.39067841,0.0412597700001243
-84.96807861,-121.38717651,0.0412597700001243
-84.98690033,-121.39041901,0.0413818400002128
-84.98638153,-121.35325623,0.041503910000074
-84.9693222,-121.37315369,0.041503910000074
-84.9905777,-121.36914063,0.0416259800001626
-84.97650909,-121.37214661,0.0417480500000238
-84.95561218,-121.41204071,0.0417480500000238
-84.96549988,-121.36216736,0.0419921900002009
-84.96138763,-121.35826874,0.0419921900002009
-84.98105621,-121.36456299,0.0421142600000621
-84.9733429,-121.37535095,0.0421142600000621
-84.9882431,-121.38326263,0.0422363300001507
-84.98780823,-121.38549042,0.0422363300001507
-84.99681091,-121.41152954,0.0422363300001507
-84.95864868,-121.35767365,0.0423584000000119
-84.95822906,-121.40122223,0.0423584000000119
-84.96204376,-121.41030121,0.0423584000000119
-84.98893738,-121.39360809,0.0424804700001005
-84.98343658,-121.35637665,0.042602540000189
-84.98872375,-121.39008331,0.042602540000189
-84.96012878,-121.4156723,0.0427246100000502
-84.98931122,-121.36981964,0.04296875
-84.96172333,-121.38896179,0.04296875
-84.95554352,-121.39424896,0.04296875
-84.9900589,-121.40518951,0.04296875
-84.9921875,-121.37155151,0.0430908200000886
-84.99112701,-121.37548065,0.0430908200000886
-84.96083069,-121.38111877,0.0430908200000886
-84.9611969,-121.41175079,0.0430908200000886
-84.96138,-121.35823059,0.0432128900001771
-84.99490356,-121.37226868,0.0432128900001771
-84.95072174,-121.35009766,0.0433349600000383
-84.95239258,-121.3576889,0.0433349600000383
-84.99006653,-121.38593292,0.0433349600000383
-84.95861053,-121.36225891,0.0434570300001269
-84.9599762,-121.39208984,0.0434570300001269
-84.96411133,-121.37893677,0.0434570300001269
-84.95478821,-121.41049957,0.0435791000002155
-84.99436951,-121.40483093,0.0437011700000767
-84.96150208,-121.38569641,0.0437011700000767
-84.97380066,-121.37391663,0.0438232500000595
-84.98404694,-121.37317657,0.0438232500000595
-84.9887085,-121.37780762,0.0438232500000595
-84.96009827,-121.41317749,0.0438232500000595
-84.96663666,-121.37386322,0.0439453200001481
-84.99124146,-121.39682007,0.0439453200001481
-84.96466064,-121.39347076,0.0440673900000093
-84.9598999,-121.35714722,0.0441894600000978
-84.97530365,-121.3923111,0.0441894600000978
-84.98696899,-121.38420105,0.0443115300001864
-84.985672,-121.38484955,0.0443115300001864
-84.96761322,-121.38411713,0.0443115300001864
-84.96286011,-121.38455963,0.0444336000000476
-84.95696259,-121.3991394,0.0444336000000476
-84.95703888,-121.3626709,0.0444336000000476
-84.98316956,-121.35636139,0.0445556700001362
-84.97618103,-121.37313843,0.0445556700001362
-84.99289703,-121.37262726,0.0445556700001362
-84.99069977,-121.3719635,0.0445556700001362
-84.9593277,-121.35135651,0.0446777400002247
-84.9903183,-121.38320923,0.0446777400002247
-84.96517181,-121.36315155,0.0447998100000859
-84.96209717,-121.36557007,0.0447998100000859
-84.96166992,-121.41281128,0.0447998100000859
-84.99469757,-121.37227631,0.0449218800001745
-84.99154663,-121.40940094,0.0449218800001745
-84.95783997,-121.39446259,0.0449218800001745
-84.96398163,-121.4030838,0.0449218800001745
-84.97976685,-121.39643097,0.0450439500000357
-84.99210358,-121.38311005,0.0451660200001243
-84.96115112,-121.39396667,0.0451660200001243
-84.97473145,-121.37312317,0.0451660200001243
-84.99327087,-121.40026093,0.0452880900002128
-84.98792267,-121.3885498,0.045410160000074
-84.96379089,-121.38916016,0.045410160000074
-84.98786926,-121.38278198,0.0455322300001626
-84.95944214,-121.40312195,0.0455322300001626
-84.97122955,-121.37513733,0.0457763700001124
-84.96868134,-121.38453674,0.0457763700001124
-84.96678162,-121.35740662,0.0458984400002009
-84.95838165,-121.36247253,0.0458984400002009
-84.99102783,-121.3842926,0.0458984400002009
-84.96337128,-121.38511658,0.0458984400002009
-84.96543121,-121.38752747,0.0458984400002009
-84.98323059,-121.37815857,0.0460205100000621
-84.96109772,-121.41729736,0.0460205100000621
-84.99609375,-121.37416077,0.0461425800001507
-84.99669647,-121.4145813,0.0461425800001507
-84.96305084,-121.41494751,0.0461425800001507
-84.98471069,-121.40660095,0.0461425800001507
-84.96013641,-121.35621643,0.0462646500000119
-84.96347046,-121.36115265,0.0462646500000119
-84.96308899,-121.36380005,0.0462646500000119
-84.96797943,-121.36199188,0.046508790000189
-84.97638702,-121.37174225,0.046508790000189
-84.96073151,-121.35385132,0.046508790000189
-84.98870087,-121.40467834,0.0466308600000502
-84.9888382,-121.35075378,0.0467529300001388
-84.96470642,-121.39076233,0.0467529300001388
-84.99703979,-121.38803864,0.046875
-84.96269226,-121.41668701,0.046875
-84.95288849,-121.41040039,0.046875
-84.97235107,-121.37077332,0.0469970700000886
-84.9872818,-121.38450623,0.0469970700000886
-84.95883179,-121.40184021,0.0469970700000886
-84.95928955,-121.40563202,0.0469970700000886
-84.9888916,-121.3896637,0.0471191400001771
-84.95768738,-121.39723969,0.0471191400001771
-84.96835327,-121.36750031,0.0472412100000383
-84.99009705,-121.35027313,0.0472412100000383
-84.99376678,-121.40107727,0.0472412100000383
-84.9805069,-121.39427185,0.0472412100000383
-84.98728943,-121.35666656,0.0473632800001269
-84.98416138,-121.37650299,0.0474853500002155
-84.96974945,-121.38339233,0.0476074200000767
-84.98648071,-121.35273743,0.0477295000000595
-84.96550751,-121.38111877,0.0477295000000595
-84.96379089,-121.41577911,0.0478515700001481
-84.97073364,-121.38600159,0.0478515700001481
-84.96327972,-121.40898895,0.0478515700001481
-84.99443054,-121.38658905,0.0479736400000093
-84.98818207,-121.37982941,0.0480957100000978
-84.96122742,-121.39402008,0.0480957100000978
-84.9694519,-121.37158203,0.0482177800001864
-84.98326111,-121.36155701,0.0482177800001864
-84.99729156,-121.38858032,0.0483398500000476
-84.98152924,-121.36216736,0.0484619200001362
-84.96112061,-121.40529633,0.0484619200001362
-84.9927597,-121.40804291,0.0484619200001362
-84.96967316,-121.36283112,0.0485839900002247
-84.96769714,-121.36196899,0.0485839900002247
-84.99987793,-121.36846924,0.0485839900002247
-84.98889923,-121.35092163,0.0487060600000859
-84.95881653,-121.35797119,0.0487060600000859
-84.96018219,-121.39495087,0.0488281300001745
-84.99382019,-121.40110016,0.0488281300001745
-84.98387146,-121.39681244,0.0489502000000357
-84.97077179,-121.3669281,0.0490722700001243
-84.96285248,-121.36321259,0.0490722700001243
-84.9807663,-121.39481354,0.0490722700001243
-84.97743988,-121.39254761,0.0491943400002128
-84.96791077,-121.38928986,0.0491943400002128
-84.97619629,-121.37217712,0.049316410000074
-84.97303772,-121.3753891,0.049316410000074
-84.98605347,-121.3852005,0.049316410000074
-84.97226715,-121.37043762,0.0494384800001626
-84.95097351,-121.41027832,0.0494384800001626
-84.98304749,-121.35720825,0.0495605500000238
-84.96166992,-121.35015106,0.0495605500000238
-84.96485138,-121.36302948,0.0495605500000238
-84.99949646,-121.37046051,0.0495605500000238
-84.9775238,-121.36598206,0.0495605500000238
-84.9594574,-121.38838196,0.0495605500000238
-84.95574188,-121.39109802,0.0495605500000238
-84.97865295,-121.37082672,0.0496826200001124
-84.96340179,-121.41503143,0.0496826200001124
-84.99906158,-121.37619781,0.0498046900002009
-84.95246124,-121.40000916,0.0498046900002009
-84.96727753,-121.39125824,0.0499267600000621
