"X","Y","Z"
-84.94914246,-121.37255096,0.350097660000074
-84.9460907,-121.35173035,0.350219730000163
-84.94470978,-121.3944397,0.351684570000089
-84.94480896,-121.35212708,0.352050780000127
-84.9432373,-121.39337158,0.352050780000127
-84.94486237,-121.3968811,0.353515630000174
-84.94405365,-121.35153198,0.354248050000024
-84.9467392,-121.35362244,0.354370120000112
-84.94895172,-121.40120697,0.35546875
-84.94833374,-121.40493011,0.355834960000038
-84.94367218,-121.40145874,0.357666020000124
-84.94943237,-121.37059784,0.359252930000139
-84.9443512,-121.40319061,0.359252930000139
-84.94434357,-121.40315247,0.360229500000059
-84.94348907,-121.3513031,0.360717780000186
-84.94599915,-121.37380219,0.360839850000048
-84.9493866,-121.37052155,0.361572270000124
-84.9491272,-121.40927124,0.361694340000213
-84.94680023,-121.40367889,0.361938480000163
-84.94837952,-121.4017868,0.362304690000201
-84.94732666,-121.40242004,0.362670900000012
-84.89318848,-121.35111237,0.362670900000012
-84.94631195,-121.40312958,0.362915040000189
-84.88446045,-121.35031891,0.36303711000005
-84.89241791,-121.35157013,0.363159180000139
-84.9455719,-121.3742981,0.363647460000038
-84.94312286,-121.37480927,0.363647460000038
-84.88490295,-121.3518219,0.363647460000038
-84.94711304,-121.40888214,0.363891600000215
-84.891922,-121.35128021,0.364257820000148
-84.94567871,-121.39881134,0.364379890000009
-84.89260864,-121.35302734,0.364746100000048
-84.88703918,-121.35485077,0.364746100000048
-84.94464111,-121.40724182,0.365600590000213
-84.94883728,-121.353508,0.367309570000089
-84.89016724,-121.35011292,0.367431640000177
-84.89575958,-121.3550415,0.367675780000127
-84.89447784,-121.35574341,0.368164070000148
-84.9453125,-121.40892029,0.368408210000098
-84.94924164,-121.37001801,0.368530280000186
-84.94117737,-121.37425232,0.368530280000186
-84.94464111,-121.40614319,0.368774420000136
-84.89945221,-121.35636139,0.369140630000174
-84.94714355,-121.39819336,0.369262700000036
-84.89797974,-121.35529327,0.369873050000024
-84.94642639,-121.37130737,0.369995120000112
-84.94358826,-121.37241364,0.369995120000112
-84.89698792,-121.36276245,0.370117190000201
-84.94297028,-121.40328217,0.370239260000062
-84.94616699,-121.41239166,0.370483400000012
-84.9486084,-121.35189819,0.3706054700001
-84.94558716,-121.41484833,0.37109375
-84.9408493,-121.37522888,0.371337890000177
-84.94862366,-121.37207794,0.371582030000127
-84.93942261,-121.42009735,0.371704100000215
-84.89823151,-121.36224365,0.371826170000077
-84.90232849,-121.35935974,0.372070320000148
-84.89954376,-121.36026764,0.372070320000148
-84.94502258,-121.40879059,0.372192390000009
-84.90036011,-121.35803986,0.372314460000098
-84.9015274,-121.36055756,0.372802740000225
-84.89888,-121.35722351,0.372924810000086
-84.94287872,-121.37525177,0.373168950000036
-84.89595032,-121.3551178,0.373168950000036
-84.88308716,-121.35044098,0.373291020000124
-84.94570923,-121.43015289,0.373413090000213
-84.94867706,-121.37120819,0.373779300000024
-84.90218353,-121.36329651,0.373901370000112
-84.94226074,-121.40036774,0.374389650000012
-84.94419861,-121.37058258,0.3745117200001
-84.94650269,-121.3706131,0.37475586000005
-84.9475708,-121.43257141,0.37475586000005
-84.94425964,-121.40818024,0.374877930000139
-84.94177246,-121.4265976,0.374877930000139
-84.93618011,-121.41789246,0.374877930000139
-84.94474792,-121.40042877,0.375122070000089
-84.94606781,-121.35140991,0.375244140000177
-84.93913269,-121.36341095,0.375610350000215
-84.94293213,-121.36695862,0.375854500000059
-84.89684296,-121.35730743,0.375976570000148
-84.94426727,-121.43032837,0.375976570000148
-84.9434433,-121.35505676,0.376098640000009
-84.89215851,-121.35514832,0.376098640000009
-84.94612885,-121.35688019,0.376464850000048
-84.94848633,-121.37165833,0.376586920000136
-84.9498291,-121.37444305,0.376708990000225
-84.92167664,-121.39544678,0.376708990000225
-84.93963623,-121.36965179,0.376831060000086
-84.94291687,-121.41007233,0.376953130000174
-84.9454422,-121.43193817,0.377075200000036
-84.94158173,-121.40500641,0.377197270000124
-84.9462738,-121.37081146,0.377319340000213
-84.94077301,-121.35192108,0.377441410000074
-84.94393921,-121.4093399,0.377441410000074
-84.9486084,-121.3571701,0.377685550000024
-84.94702148,-121.4345932,0.378295900000012
-84.94937897,-121.35616302,0.37866211000005
-84.93998718,-121.3677063,0.378784180000139
-84.93759155,-121.36846161,0.379028320000089
-84.94029999,-121.40541077,0.379028320000089
-84.94261932,-121.40297699,0.379150390000177
-84.94969177,-121.4360733,0.379150390000177
-84.94908142,-121.35739136,0.379272460000038
-84.90271759,-121.36641693,0.379516600000215
-84.94558716,-121.40380859,0.379760750000059
-84.94235992,-121.41095734,0.379882820000148
-84.93943024,-121.40885925,0.379882820000148
-84.91235352,-121.37168884,0.380126960000098
-84.89241028,-121.35082245,0.380126960000098
-84.90289307,-121.36237335,0.380249030000186
-84.94954681,-121.35784912,0.380737310000086
-84.90062714,-121.36226654,0.380859380000174
-84.93930054,-121.42523956,0.380981450000036
-84.94616699,-121.35398102,0.381103520000124
-84.91462708,-121.3704834,0.381103520000124
-84.93167877,-121.41687012,0.381103520000124
-84.90976715,-121.36580658,0.381347660000074
-84.94242096,-121.42725372,0.381347660000074
-84.94648743,-121.36958313,0.381469730000163
-84.91620636,-121.3755188,0.381469730000163
-84.91564178,-121.37000275,0.381591800000024
-84.94019318,-121.36755371,0.381835940000201
-84.93707275,-121.36972046,0.382080080000151
-84.94003296,-121.42633057,0.382690430000139
-84.94780731,-121.43270874,0.3828125
-84.91587067,-121.36994934,0.383056640000177
-84.94159698,-121.42571259,0.383300780000127
-84.92929077,-121.41320801,0.383422850000215
-84.93640137,-121.4083786,0.383789070000148
-84.9189682,-121.37454224,0.383789070000148
-84.94843292,-121.37164307,0.383911140000009
-84.93624115,-121.40535736,0.384155280000186
-84.9464035,-121.36923981,0.384277350000048
-84.94831848,-121.43328094,0.384521490000225
-84.91409302,-121.37008667,0.384765630000174
-84.88887024,-121.35299683,0.385009770000124
-84.94892883,-121.36917877,0.385253910000074
-84.9376297,-121.42266846,0.385253910000074
-84.92093658,-121.37478638,0.385498050000024
-84.93849945,-121.41239166,0.385742190000201
-84.89202118,-121.3560791,0.385864260000062
-84.94419861,-121.35124969,0.385986330000151
-84.94461823,-121.41632843,0.386108400000012
-84.9397583,-121.41191864,0.3862304700001
-84.94233704,-121.36820984,0.386352540000189
-84.93656158,-121.36379242,0.386352540000189
-84.94262695,-121.40023804,0.386352540000189
-84.94792175,-121.43276978,0.386352540000189
-84.94641113,-121.36940002,0.38647461000005
-84.9438324,-121.41754913,0.38647461000005
-84.92019653,-121.37423706,0.38647461000005
-84.94258118,-121.42733765,0.386596680000139
-84.93810272,-121.36625671,0.38671875
-84.94802856,-121.41892242,0.38671875
-84.92915344,-121.41298676,0.38671875
-84.93763733,-121.40756989,0.387084960000038
-84.93389893,-121.41989136,0.387207030000127
-84.94542694,-121.36472321,0.387329100000215
-84.93512726,-121.4074707,0.387451170000077
-84.93836212,-121.42701721,0.387451170000077
-84.93831635,-121.40956879,0.387573250000059
-84.89157867,-121.353508,0.387573250000059
-84.94484711,-121.43079376,0.387695320000148
-84.94483948,-121.41652679,0.387939460000098
-84.89321136,-121.35704803,0.387939460000098
-84.91696167,-121.37307739,0.388183600000048
-84.94638062,-121.43067169,0.388183600000048
-84.89756775,-121.35340881,0.388793950000036
-84.8963089,-121.35386658,0.388793950000036
-84.94431305,-121.40146637,0.388916020000124
-84.94001007,-121.42591858,0.389160160000074
-84.9283905,-121.41423035,0.389404300000024
-84.92301178,-121.40602875,0.389526370000112
-84.94844818,-121.43360901,0.389526370000112
-84.94267273,-121.42739105,0.389526370000112
-84.94534302,-121.36437988,0.390014650000012
-84.93443298,-121.42073059,0.3901367200001
-84.89649963,-121.35507202,0.39038086000005
-84.89852905,-121.35413361,0.390625
-84.92720795,-121.38033295,0.390747070000089
-84.89608002,-121.35253906,0.390747070000089
-84.94406128,-121.42926788,0.390747070000089
-84.94023895,-121.36566162,0.390991210000038
-84.92524719,-121.37876129,0.390991210000038
-84.94812012,-121.37167358,0.391357420000077
-84.89859772,-121.35936737,0.391357420000077
-84.94613647,-121.36952209,0.391479500000059
-84.94232941,-121.42939758,0.391723640000009
-84.89285278,-121.35140228,0.391967780000186
-84.94558716,-121.42941284,0.391967780000186
-84.90022278,-121.37117004,0.391967780000186
-84.94803619,-121.40750885,0.391967780000186
-84.89929199,-121.36110687,0.392089850000048
-84.92511749,-121.40898895,0.392089850000048
-84.94477844,-121.43035126,0.392211920000136
-84.94281006,-121.36582947,0.392578130000174
-84.94068909,-121.36421967,0.392700200000036
-84.93830872,-121.42658997,0.392700200000036
-84.94481659,-121.36566162,0.392822270000124
-84.94876099,-121.36865997,0.393066410000074
-84.90164948,-121.35740662,0.393066410000074
-84.94587708,-121.42945099,0.393188480000163
-84.94471741,-121.40281677,0.393676760000062
-84.9312973,-121.3843689,0.393676760000062
-84.93643951,-121.38778687,0.393920900000012
-84.94992828,-121.43579865,0.394165040000189
-84.90164185,-121.35736847,0.39428711000005
-84.94371033,-121.42878723,0.39428711000005
-84.90200043,-121.3616333,0.394409180000139
-84.93927002,-121.42468262,0.394409180000139
-84.94484711,-121.35150146,0.39453125
-84.9388504,-121.41387177,0.39453125
-84.938797,-121.39208984,0.39453125
-84.94902039,-121.41285706,0.394653320000089
-84.94877625,-121.36884308,0.395019530000127
-84.93763733,-121.38877106,0.395629890000009
-84.91581726,-121.39478302,0.396118170000136
-84.94409943,-121.36849213,0.396240240000225
-84.90544891,-121.36267853,0.396240240000225
-84.94035339,-121.4133606,0.396240240000225
-84.94864655,-121.43373108,0.396240240000225
-84.9396286,-121.36786652,0.396362310000086
-84.90512085,-121.36492157,0.396362310000086
-84.90283966,-121.35809326,0.396362310000086
-84.94677734,-121.35273743,0.396606450000036
-84.94052887,-121.39183044,0.396606450000036
-84.93641663,-121.42349243,0.396606450000036
-84.92165375,-121.40377045,0.396606450000036
-84.94557953,-121.37071228,0.396850590000213
-84.89254761,-121.36210632,0.396850590000213
-84.94931793,-121.36660767,0.396972660000074
-84.94512939,-121.43094635,0.397216800000024
-84.94464874,-121.36627197,0.397583010000062
-84.94045258,-121.42682648,0.397583010000062
-84.94628143,-121.35243988,0.397827150000012
-84.94975281,-121.37236023,0.3979492200001
-84.93779755,-121.42562103,0.3979492200001
-84.94618225,-121.36872864,0.3984375
-84.92037201,-121.40168762,0.3984375
-84.90708923,-121.36515808,0.398559570000089
-84.92687988,-121.41148376,0.398559570000089
-84.94992828,-121.40232849,0.398803710000038
-84.89057922,-121.35922241,0.398803710000038
-84.93985748,-121.42556,0.399414070000148
-84.9380722,-121.42591858,0.399414070000148
-84.90203094,-121.35871124,0.399536140000009
-84.94364929,-121.42835999,0.399536140000009
-84.94226837,-121.41455841,0.399780280000186
-84.89241028,-121.3618927,0.399902350000048
-84.91255188,-121.36604309,0.400146490000225
-84.91004944,-121.36595917,0.400146490000225
-84.89806366,-121.3575592,0.400268560000086
-84.90569305,-121.36129761,0.400390630000174
-84.8928833,-121.3553772,0.400390630000174
-84.94893646,-121.35417938,0.400634770000124
-84.94125366,-121.42743683,0.400634770000124
-84.94252777,-121.35147095,0.400756840000213
-84.94013214,-121.36554718,0.401000980000163
-84.94261169,-121.41902924,0.401245120000112
-84.94281006,-121.42707062,0.401245120000112
-84.94812775,-121.43274689,0.401245120000112
-84.90120697,-121.37513733,0.401367190000201
-84.91242218,-121.36974335,0.401489260000062
-84.94290924,-121.37158203,0.401733400000012
-84.93257141,-121.42024994,0.401733400000012
-84.9401474,-121.42913055,0.4018554700001
-84.91400146,-121.36702728,0.401977540000189
-84.93778992,-121.41309357,0.401977540000189
-84.9389801,-121.40685272,0.402832030000127
-84.94979095,-121.41863251,0.402954100000215
-84.93727112,-121.40553284,0.403198250000059
-84.90058899,-121.37412262,0.403198250000059
-84.9397583,-121.36628723,0.403564460000098
-84.94645691,-121.35250854,0.403564460000098
-84.94245148,-121.42932892,0.403564460000098
-84.88533783,-121.35111237,0.403564460000098
-84.9405365,-121.35005951,0.403686530000186
-84.91422272,-121.36723328,0.403686530000186
-84.93173218,-121.41896057,0.403808600000048
-84.9431076,-121.42764282,0.404296880000174
-84.90444946,-121.37969971,0.404296880000174
-84.94425201,-121.35089111,0.404785160000074
-84.93868256,-121.40776062,0.405029300000024
-84.91230774,-121.39186859,0.405029300000024
-84.93463898,-121.42072296,0.405151370000112
-84.9329071,-121.420578,0.405517580000151
-84.93560028,-121.40989685,0.405639650000012
-84.94072723,-121.4264679,0.405639650000012
-84.94100952,-121.42057037,0.40600586000005
-84.94317627,-121.42742157,0.40600586000005
-84.94917297,-121.43415833,0.40600586000005
-84.94313049,-121.3629303,0.40625
-84.91243744,-121.36733246,0.406494140000177
-84.94172668,-121.35075378,0.406738280000127
-84.90798187,-121.36566925,0.406860350000215
-84.90525818,-121.36482239,0.407104500000059
-84.94882965,-121.36708069,0.407226570000148
-84.94075775,-121.42675018,0.407348640000009
-84.93772888,-121.41291046,0.407470710000098
-84.92961884,-121.41533661,0.407592780000186
-84.91618347,-121.39797974,0.407592780000186
-84.94126892,-121.41951752,0.407958990000225
-84.93743134,-121.42474365,0.407958990000225
-84.93768311,-121.41413116,0.408325200000036
-84.89263153,-121.35236359,0.408325200000036
-84.92001343,-121.40380859,0.408325200000036
-84.94568634,-121.36920929,0.408447270000124
-84.93949127,-121.3664093,0.408569340000213
-84.92415619,-121.37539673,0.408569340000213
-84.94880676,-121.3744278,0.408691410000074
-84.94616699,-121.43195343,0.408691410000074
-84.90525818,-121.38083649,0.408691410000074
-84.93077087,-121.41721344,0.409057620000112
-84.92460632,-121.37689209,0.409179690000201
-84.93901062,-121.42739105,0.409179690000201
-84.94893646,-121.36646271,0.409423830000151
-84.9414978,-121.41947174,0.409423830000151
-84.93197632,-121.36842346,0.410034180000139
-84.89647675,-121.35643005,0.41015625
-84.93260956,-121.41988373,0.410278320000089
-84.91806793,-121.40042877,0.410278320000089
-84.94178009,-121.36765289,0.410400390000177
-84.94564056,-121.40706635,0.410400390000177
-84.92488098,-121.37561035,0.410400390000177
-84.92266846,-121.37428284,0.410522460000038
-84.89742279,-121.35820007,0.410522460000038
-84.91822815,-121.37238312,0.410644530000127
-84.94593811,-121.36804962,0.410766600000215
-84.93720245,-121.366539,0.410766600000215
-84.8841629,-121.35050201,0.410888670000077
-84.94110107,-121.42707062,0.410888670000077
-84.93862915,-121.42662811,0.410888670000077
-84.89334106,-121.35279846,0.411010750000059
-84.88614655,-121.35056305,0.411132820000148
-84.93508911,-121.42385101,0.411132820000148
-84.94400024,-121.42855835,0.411254890000009
-84.93826294,-121.41855621,0.411376960000098
-84.93493652,-121.36672974,0.411499030000186
-84.93837738,-121.36242676,0.411621100000048
-84.92056274,-121.40440369,0.411621100000048
-84.93978119,-121.42823792,0.411865240000225
-84.94113922,-121.42710114,0.412353520000124
-84.92308044,-121.40786743,0.412475590000213
-84.94425964,-121.42910767,0.412719730000163
-84.94174194,-121.36756134,0.412841800000024
-84.93151093,-121.36994934,0.412841800000024
-84.93580627,-121.42492676,0.412841800000024
-84.93582916,-121.4156723,0.413085940000201
-84.8944931,-121.35501862,0.413085940000201
-84.92578125,-121.35211945,0.413085940000201
-84.94364929,-121.36817932,0.413208010000062
-84.89273834,-121.35494995,0.413330080000151
-84.94229889,-121.42871094,0.413330080000151
-84.93875885,-121.41776276,0.413452150000012
-84.93489838,-121.36665344,0.413696290000189
-84.92333221,-121.40841675,0.413940430000139
-84.93849182,-121.42640686,0.413940430000139
-84.94487762,-121.37171173,0.414306640000177
-84.9440918,-121.42861176,0.414306640000177
-84.9313736,-121.38269806,0.414428710000038
-84.89063263,-121.36171722,0.414672850000215
-84.94828796,-121.36843109,0.414794920000077
-84.93409729,-121.38301849,0.414917000000059
-84.93981934,-121.36456299,0.415039070000148
-84.94834137,-121.35218811,0.415039070000148
-84.9460907,-121.35211945,0.415039070000148
-84.94519043,-121.42771149,0.415039070000148
-84.9258194,-121.41239166,0.415039070000148
-84.94634247,-121.43231201,0.415161140000009
-84.93363953,-121.42153168,0.415161140000009
-84.94100189,-121.42687988,0.415405280000186
-84.88323975,-121.35060883,0.415405280000186
-84.938591,-121.41468048,0.415527350000048
-84.93261719,-121.38220215,0.415649420000136
-84.93990326,-121.42829895,0.415649420000136
-84.92842102,-121.35133362,0.415649420000136
-84.92671204,-121.37924957,0.415771490000225
-84.93769073,-121.42762756,0.415771490000225
-84.93698883,-121.4176178,0.415893560000086
-84.90229797,-121.36019135,0.415893560000086
-84.90473938,-121.36200714,0.416015630000174
-84.931633,-121.38163757,0.416381840000213
-84.94077301,-121.37043762,0.416503910000074
-84.89311218,-121.35787201,0.416503910000074
-84.93399811,-121.36978149,0.416870120000112
-84.9375,-121.41684723,0.416870120000112
-84.9363327,-121.41430664,0.416992190000201
-84.94127655,-121.43044281,0.416992190000201
-84.92411041,-121.40953064,0.4174804700001
-84.9368515,-121.4263382,0.4174804700001
-84.94373322,-121.4281311,0.4174804700001
-84.94780731,-121.36995697,0.417602540000189
-84.93578339,-121.41551971,0.417602540000189
-84.89383698,-121.36676788,0.417602540000189
-84.88735199,-121.35674286,0.417602540000189
-84.9355011,-121.38522339,0.417846680000139
-84.9473114,-121.43067169,0.417846680000139
-84.93939209,-121.36631012,0.418334960000038
-84.94287872,-121.42983246,0.418579100000215
-84.93769836,-121.40979004,0.418823250000059
-84.88607025,-121.35030365,0.419189460000098
-84.93689728,-121.42636871,0.419311530000186
-84.94806671,-121.3687973,0.419555670000136
-84.89143372,-121.3631134,0.419677740000225
-84.89750671,-121.37210846,0.419799810000086
-84.94497681,-121.35299683,0.419799810000086
-84.93795776,-121.41702271,0.419921880000174
-84.93357849,-121.42411041,0.419921880000174
-84.92060089,-121.40402985,0.419921880000174
-84.94032288,-121.39006042,0.420043950000036
-84.94599152,-121.36741638,0.420166020000124
-84.93669128,-121.41747284,0.420166020000124
-84.94645691,-121.42964172,0.420166020000124
-84.92485809,-121.41062927,0.420166020000124
-84.94584656,-121.43109894,0.420410160000074
-84.93720245,-121.36566162,0.420532230000163
-84.93650818,-121.42861176,0.420532230000163
-84.90930939,-121.36601257,0.420898440000201
-84.90383911,-121.36506653,0.421020510000062
-84.94792175,-121.41854858,0.421020510000062
-84.93511963,-121.36554718,0.421264650000012
-84.93166351,-121.36855316,0.421752930000139
-84.94299316,-121.42964172,0.421752930000139
-84.93656921,-121.4283905,0.421997070000089
-84.89576721,-121.36949921,0.421997070000089
-84.9454422,-121.43058777,0.422241210000038
-84.94004059,-121.36345673,0.422485350000215
-84.94081879,-121.40500641,0.422485350000215
-84.9442215,-121.35308075,0.422485350000215
-84.94854736,-121.37368774,0.422729500000059
-84.91786194,-121.37197876,0.422729500000059
-84.94171143,-121.43357086,0.422729500000059
-84.93302155,-121.36412048,0.423095710000098
-84.92204285,-121.40944672,0.423217780000186
-84.94882965,-121.4152832,0.423217780000186
-84.94081116,-121.36965179,0.423461920000136
-84.91507721,-121.39913177,0.423583990000225
-84.94238281,-121.42861938,0.423828130000174
-84.90077209,-121.37693787,0.423950200000036
-84.92767334,-121.35431671,0.423950200000036
-84.90815735,-121.38831329,0.424072270000124
-84.94438934,-121.4287796,0.424194340000213
-84.94199371,-121.36553955,0.424316410000074
-84.91240692,-121.36949921,0.424316410000074
-84.93505096,-121.42629242,0.424316410000074
-84.89427185,-121.36715698,0.424316410000074
-84.91808319,-121.37217712,0.424438480000163
-84.94629669,-121.36540222,0.424682620000112
-84.94342041,-121.36753082,0.424682620000112
-84.93625641,-121.36134338,0.424804690000201
-84.94239807,-121.42888641,0.425048830000151
-84.94661713,-121.42946625,0.425170900000012
-84.93734741,-121.41081238,0.425415040000189
-84.94715881,-121.3707962,0.42553711000005
-84.9331665,-121.36245728,0.42553711000005
-84.92031097,-121.40683746,0.42553711000005
-84.94792938,-121.37574005,0.426025390000177
-84.93399811,-121.42447662,0.426147460000038
-84.94300842,-121.35346985,0.426269530000127
-84.93843842,-121.36083221,0.426391600000215
-84.94055176,-121.36115265,0.426391600000215
-84.92414093,-121.41268158,0.426391600000215
-84.94458771,-121.36338043,0.426513670000077
-84.93695068,-121.35858154,0.426513670000077
-84.94380188,-121.4307785,0.426513670000077
-84.94093323,-121.43231201,0.426513670000077
-84.94223785,-121.36437225,0.426757820000148
-84.94117737,-121.40789032,0.426879890000009
-84.93946075,-121.4068222,0.427001960000098
-84.91996765,-121.37465668,0.427001960000098
-84.94936371,-121.43373108,0.427001960000098
-84.92536163,-121.37832642,0.427246100000048
-84.92729187,-121.41770172,0.427246100000048
-84.94780731,-121.3690567,0.427490240000225
-84.94866943,-121.37322235,0.427734380000174
-84.94534302,-121.3682785,0.427978520000124
-84.90876007,-121.39192963,0.428222660000074
-84.93341827,-121.42321777,0.428466800000024
-84.93830872,-121.42812347,0.428710940000201
-84.93811798,-121.36181641,0.428833010000062
-84.88704681,-121.35862732,0.428833010000062
-84.94830322,-121.36660004,0.428955080000151
-84.92896271,-121.36933899,0.428955080000151
-84.936203,-121.41416168,0.428955080000151
-84.93367767,-121.35257721,0.428955080000151
-84.91732788,-121.40466309,0.4291992200001
-84.92423248,-121.41272736,0.429321290000189
-84.8980484,-121.37529755,0.429321290000189
-84.91126251,-121.39565277,0.429321290000189
-84.93974304,-121.3635025,0.42944336000005
-84.93798065,-121.35038757,0.42944336000005
-84.94969177,-121.37700653,0.429809570000089
-84.94104004,-121.43211365,0.429809570000089
-84.88952637,-121.36260223,0.429809570000089
-84.93232727,-121.42165375,0.429931640000177
-84.94872284,-121.3723526,0.430175780000127
-84.94062042,-121.42401123,0.430664070000148
-84.93637848,-121.43125916,0.430908210000098
-84.91895294,-121.40706635,0.430908210000098
-84.93055725,-121.42227936,0.431030280000186
-84.92449188,-121.41326904,0.431152350000048
-84.94621277,-121.35059357,0.431274420000136
-84.94615936,-121.42167664,0.431274420000136
-84.94769287,-121.43115234,0.431396490000225
-84.94947052,-121.36984253,0.431640630000174
-84.93974304,-121.43028259,0.431640630000174
-84.93887329,-121.43171692,0.431640630000174
-84.94191742,-121.3516922,0.431762700000036
-84.93167877,-121.38239288,0.431884770000124
-84.94573212,-121.43076324,0.431884770000124
-84.93881989,-121.35436249,0.432006840000213
-84.94759369,-121.36943054,0.432250980000163
-84.90782166,-121.39266968,0.432250980000163
-84.93580627,-121.43273926,0.432495120000112
-84.93688965,-121.43183136,0.432617190000201
-84.93475342,-121.36544037,0.432739260000062
-84.93891907,-121.35105896,0.432739260000062
-84.89459229,-121.37281799,0.432739260000062
-84.94557953,-121.43302155,0.432861330000151
-84.927742,-121.420578,0.432861330000151
-84.92958069,-121.42598724,0.432983400000012
-84.89840698,-121.37864685,0.433227540000189
-84.94786072,-121.35282898,0.43334961000005
-84.94233704,-121.35340881,0.43334961000005
-84.93792725,-121.35050201,0.433715820000089
-84.9303894,-121.38304138,0.433715820000089
-84.91835785,-121.40605927,0.433715820000089
-84.93425751,-121.41819,0.434082030000127
-84.9489212,-121.42928314,0.434082030000127
-84.9401474,-121.36196136,0.434204100000215
-84.93531036,-121.37062836,0.434204100000215
-84.94335938,-121.42684937,0.434570320000148
-84.94117737,-121.43218994,0.434570320000148
-84.91596222,-121.40512848,0.434692390000009
-84.94072723,-121.36844635,0.434936530000186
-84.94139862,-121.42671204,0.435668950000036
-84.90589905,-121.38980865,0.435791020000124
-84.94193268,-121.43602753,0.435913090000213
-84.93634796,-121.43359375,0.435913090000213
-84.94740295,-121.42719269,0.436401370000112
-84.94068146,-121.42014313,0.436523440000201
-84.93965912,-121.43009949,0.436645510000062
-84.943573,-121.36624908,0.436889650000012
-84.88889313,-121.36717224,0.4370117200001
-84.93430328,-121.35202026,0.437133790000189
-84.93939972,-121.42080688,0.43725586000005
-84.92632294,-121.35146332,0.437377930000139
-84.93708038,-121.36450958,0.4375
-84.93920898,-121.42655945,0.4375
-84.94068146,-121.36836243,0.437622070000089
-84.89180756,-121.37193298,0.437744140000177
-84.93226624,-121.36473083,0.437866210000038
-84.9383316,-121.42198944,0.438110350000215
-84.87950897,-121.3529129,0.438232420000077
-84.9484787,-121.35726166,0.438354500000059
-84.93408966,-121.36739349,0.438476570000148
-84.89678955,-121.37909698,0.438476570000148
-84.93778229,-121.36177063,0.438598640000009
-84.94233704,-121.35173035,0.438720710000098
-84.94390106,-121.42167664,0.438842780000186
-84.94819641,-121.35590363,0.439208990000225
-84.93740845,-121.41490936,0.439208990000225
-84.93953705,-121.36289978,0.439453130000174
-84.94989777,-121.4254303,0.439697270000124
-84.94696808,-121.35508728,0.439941410000074
-84.93522644,-121.41425323,0.440063480000163
-84.938797,-121.35816956,0.440307620000112
-84.93427277,-121.3519516,0.440429690000201
-84.93708038,-121.35752869,0.440551760000062
-84.9402771,-121.36039734,0.4409179700001
-84.94902039,-121.41484833,0.44116211000005
-84.943573,-121.3514328,0.441284180000139
-84.94483185,-121.36884308,0.442504890000009
-84.93847656,-121.35916138,0.442749030000186
-84.92843628,-121.35067749,0.443115240000225
-84.94022369,-121.35944366,0.443115240000225
-84.94693756,-121.39740753,0.443481450000036
-84.92611694,-121.39753723,0.443847660000074
-84.93952179,-121.36299133,0.443969730000163
-84.94523621,-121.39704132,0.444213870000112
-84.94174957,-121.40955353,0.444213870000112
-84.93528748,-121.40554047,0.444213870000112
-84.92707062,-121.40162659,0.444213870000112
-84.92836761,-121.36221313,0.444702150000012
-84.9408493,-121.40522766,0.444702150000012
-84.93730927,-121.40570831,0.44506836000005
-84.94487762,-121.36795807,0.445190430000139
-84.94725037,-121.35217285,0.4453125
-84.9447403,-121.39099884,0.445434570000089
-84.92527008,-121.39624023,0.445678710000038
-84.94017029,-121.39515686,0.445922850000215
-84.94577026,-121.35134888,0.446044920000077
-84.94013977,-121.39240265,0.446044920000077
-84.93717957,-121.36287689,0.446167000000059
-84.94966125,-121.39264679,0.446167000000059
-84.93412018,-121.36657715,0.446289070000148
-84.93933868,-121.36344147,0.446411140000009
-84.93109131,-121.36795807,0.446533210000098
-84.94522858,-121.3885498,0.446655280000186
-84.9240036,-121.39691162,0.446655280000186
-84.94213867,-121.38955688,0.446777350000048
-84.93520355,-121.36197662,0.446899420000136
-84.9348526,-121.38973999,0.446899420000136
-84.93395996,-121.39167786,0.447143560000086
-84.92823029,-121.39450073,0.447631840000213
-84.94346619,-121.38893127,0.447753910000074
-84.94300842,-121.35095215,0.447998050000024
-84.93682861,-121.38414001,0.447998050000024
-84.94432068,-121.37026215,0.448242190000201
-84.94039154,-121.38694,0.448608400000012
-84.94075775,-121.3506012,0.4487304700001
-84.93708801,-121.3625412,0.448852540000189
-84.93492889,-121.36322021,0.449340820000089
-84.9269104,-121.38964844,0.449462890000177
-84.94093323,-121.36631012,0.449584960000038
-84.94744873,-121.35228729,0.449584960000038
-84.94104004,-121.3822403,0.449584960000038
-84.93197632,-121.3795166,0.449707030000127
-84.92845917,-121.38601685,0.449707030000127
-84.92871857,-121.38905334,0.449707030000127
-84.94226837,-121.36907959,0.449951170000077
-84.93022919,-121.38265228,0.449951170000077
