"X","Y","Z"
-84.91583252,-121.36686707,0.109008790000189
-84.92047119,-121.37828827,0.109008790000189
-84.92855835,-121.41458893,0.109008790000189
-84.85701752,-121.38948059,0.10913086000005
-84.86052704,-121.39411926,0.10913086000005
-84.92887115,-121.35028076,0.10913086000005
-84.92272949,-121.37010193,0.109252930000139
-84.85176849,-121.40659332,0.109252930000139
-84.9475174,-121.42368317,0.109252930000139
-84.8653717,-121.43802643,0.109252930000139
-84.94111633,-121.42073822,0.109375
-84.93019104,-121.38710022,0.109375
-84.92482758,-121.3824234,0.109375
-84.89978027,-121.37328339,0.109375
-84.90737152,-121.44309235,0.109375
-84.92141724,-121.37180328,0.109497070000089
-84.90286255,-121.37252045,0.109497070000089
-84.89498138,-121.44763947,0.109497070000089
-84.91880798,-121.3674469,0.109619140000177
-84.93573761,-121.41680145,0.109619140000177
-84.8768692,-121.42716217,0.109619140000177
-84.91896057,-121.38481903,0.109619140000177
-84.92899323,-121.38529968,0.109741210000038
-84.92733765,-121.41352081,0.109741210000038
-84.93013,-121.39923859,0.109741210000038
-84.9046402,-121.36914825,0.109741210000038
-84.89420319,-121.37109375,0.109741210000038
-84.86306,-121.39279938,0.109863280000127
-84.94493866,-121.40281677,0.109985350000215
-84.85431671,-121.41265869,0.109985350000215
-84.89573669,-121.37071228,0.109985350000215
-84.91651154,-121.36860657,0.110107420000077
-84.93856812,-121.39861298,0.110107420000077
-84.90718079,-121.3553009,0.110107420000077
-84.94568634,-121.40573883,0.110107420000077
-84.8575592,-121.42915344,0.110107420000077
-84.85195923,-121.42369843,0.110107420000077
-84.93775177,-121.42088318,0.110107420000077
-84.93604279,-121.35221863,0.110229500000059
-84.87123108,-121.44677734,0.110229500000059
-84.86920929,-121.3966217,0.110351570000148
-84.85764313,-121.39620972,0.110351570000148
-84.8792038,-121.44798279,0.110351570000148
-84.93618011,-121.40876007,0.110351570000148
-84.89933777,-121.36974335,0.110351570000148
-84.87007904,-121.4020462,0.110473640000009
-84.93354797,-121.39092255,0.110473640000009
-84.9475174,-121.41140747,0.110473640000009
-84.91654968,-121.36734772,0.110595710000098
-84.92111969,-121.3730011,0.110595710000098
-84.93041992,-121.38732147,0.110595710000098
-84.91940308,-121.41098785,0.110595710000098
-84.90653992,-121.44780731,0.110595710000098
-84.87902832,-121.44991302,0.110595710000098
-84.91262054,-121.35360718,0.110717780000186
-84.91230774,-121.35894775,0.110717780000186
-84.94345093,-121.40200043,0.110717780000186
-84.93520355,-121.4177475,0.110717780000186
-84.94848633,-121.4247818,0.110717780000186
-84.92417908,-121.37109375,0.110839850000048
-84.91577148,-121.36807251,0.110839850000048
-84.8586731,-121.41702271,0.110839850000048
-84.94618225,-121.41255951,0.110839850000048
-84.94891357,-121.42254639,0.110839850000048
-84.90823364,-121.37169647,0.110839850000048
-84.86364746,-121.43817139,0.110839850000048
-84.92597198,-121.36963654,0.110961920000136
-84.86286926,-121.41866302,0.110961920000136
-84.91988373,-121.3864212,0.110961920000136
-84.92082214,-121.3744812,0.111083990000225
-84.90670776,-121.3720932,0.111083990000225
-84.86678314,-121.42151642,0.111328130000174
-84.90718079,-121.35574341,0.111450200000036
-84.93157959,-121.35054016,0.111450200000036
-84.92420959,-121.36981964,0.111450200000036
-84.92001343,-121.36818695,0.111450200000036
-84.89759064,-121.37011719,0.111450200000036
-84.85050964,-121.3963623,0.111572270000124
-84.91201019,-121.36016083,0.111572270000124
-84.92111206,-121.37297058,0.111572270000124
-84.89913177,-121.36322021,0.111572270000124
-84.85379791,-121.42636871,0.111572270000124
-84.90751648,-121.36229706,0.111694340000213
-84.92726135,-121.38391876,0.111694340000213
-84.85484314,-121.41136932,0.111694340000213
-84.92106628,-121.36620331,0.111816410000074
-84.93757629,-121.4106369,0.111816410000074
-84.94001007,-121.39959717,0.111938480000163
-84.93541718,-121.41796875,0.111938480000163
-84.92552185,-121.39489746,0.111938480000163
-84.9043808,-121.35614777,0.112060550000024
-84.85649872,-121.41416168,0.112060550000024
-84.8684082,-121.44508362,0.112060550000024
-84.85610962,-121.39261627,0.112182620000112
-84.93112946,-121.38778687,0.112182620000112
-84.90119171,-121.35404205,0.112182620000112
-84.94438934,-121.40390778,0.112182620000112
-84.89269257,-121.36573792,0.112182620000112
-84.91162109,-121.37700653,0.112182620000112
-84.8788681,-121.44941711,0.112182620000112
-84.94522095,-121.41869354,0.112182620000112
-84.87351227,-121.44423676,0.112426760000062
-84.93576813,-121.35214233,0.112548830000151
-84.88407898,-121.44332123,0.112548830000151
-84.94319153,-121.41937256,0.112548830000151
-84.89627075,-121.36502075,0.112548830000151
-84.85810089,-121.43273926,0.112548830000151
-84.91898346,-121.36885834,0.112670900000012
-84.9176712,-121.37056732,0.112670900000012
-84.92208099,-121.41275787,0.112670900000012
-84.86035919,-121.4182663,0.112670900000012
-84.93045807,-121.40257263,0.112670900000012
-84.90595245,-121.44654083,0.112670900000012
-84.87386322,-121.42646027,0.1127929700001
-84.94763184,-121.42047882,0.1127929700001
-84.90905762,-121.35826874,0.112915040000189
-84.94104004,-121.39859772,0.112915040000189
-84.93572998,-121.39241791,0.112915040000189
-84.93717194,-121.41773987,0.112915040000189
-84.94087219,-121.40113831,0.112915040000189
-84.87689209,-121.41152954,0.11303711000005
-84.91812134,-121.36431885,0.11303711000005
-84.92182922,-121.3734436,0.11303711000005
-84.94059753,-121.42009735,0.11303711000005
-84.87088013,-121.44277954,0.11303711000005
-84.9061203,-121.35617065,0.113159180000139
-84.86695862,-121.42297363,0.113159180000139
-84.87088013,-121.44605255,0.113159180000139
-84.9492569,-121.40711212,0.11328125
-84.92247772,-121.36844635,0.113403320000089
-84.9318924,-121.41831207,0.113403320000089
-84.94554138,-121.40576935,0.113403320000089
-84.89141846,-121.3664093,0.113403320000089
-84.91166687,-121.35650635,0.113525390000177
-84.86103821,-121.39179993,0.113525390000177
-84.93984222,-121.39653778,0.113525390000177
-84.94680786,-121.42494202,0.113525390000177
-84.93282318,-121.35001373,0.113647460000038
-84.9174118,-121.37052917,0.113647460000038
-84.93981171,-121.40532684,0.113647460000038
-84.89273071,-121.3657608,0.113647460000038
-84.86753845,-121.44403076,0.113647460000038
-84.86219788,-121.43859863,0.113647460000038
-84.93730927,-121.39885712,0.113769530000127
-84.93385315,-121.40786743,0.113769530000127
-84.90988922,-121.37413025,0.113769530000127
-84.85263824,-121.39685059,0.113891600000215
-84.91647339,-121.36849213,0.113891600000215
-84.92359924,-121.38023376,0.113891600000215
-84.87423706,-121.44506836,0.113891600000215
-84.90239716,-121.35476685,0.114013670000077
-84.89250946,-121.36224365,0.114013670000077
-84.9154129,-121.36244202,0.114135750000059
-84.89949799,-121.35166931,0.114135750000059
-84.8589325,-121.4156723,0.114135750000059
-84.87935638,-121.44937134,0.114135750000059
-84.94725037,-121.42272186,0.114135750000059
-84.90699768,-121.35617828,0.114257820000148
-84.92063141,-121.37136841,0.114257820000148
-84.88728333,-121.44410706,0.114257820000148
-84.86649323,-121.44496918,0.114379890000009
-84.90599823,-121.44657135,0.114379890000009
-84.90944672,-121.36097717,0.114501960000098
-84.93858337,-121.41999054,0.114501960000098
-84.8564682,-121.41407776,0.114501960000098
-84.93868256,-121.39772797,0.114501960000098
-84.91369629,-121.38021088,0.114501960000098
-84.8500824,-121.42385864,0.114501960000098
-84.94656372,-121.40522766,0.114624030000186
-84.94367218,-121.41416931,0.114624030000186
-84.90151215,-121.35066223,0.114746100000048
-84.92323303,-121.37593842,0.114746100000048
-84.93403625,-121.38980103,0.114746100000048
-84.93904114,-121.41557312,0.114746100000048
-84.87181091,-121.44438934,0.114746100000048
-84.87069702,-121.44580078,0.114746100000048
-84.92932129,-121.3731308,0.114868170000136
-84.91977692,-121.36656189,0.114868170000136
-84.85961151,-121.4176712,0.114868170000136
-84.86827087,-121.44486237,0.114868170000136
-84.90924072,-121.35594177,0.114990240000225
-84.9065094,-121.36493683,0.114990240000225
-84.94463348,-121.40264893,0.114990240000225
-84.92424774,-121.41425323,0.114990240000225
-84.85372925,-121.38243866,0.114990240000225
-84.89897919,-121.36652374,0.114990240000225
-84.92176056,-121.37487793,0.115112310000086
-84.92379761,-121.38144684,0.115112310000086
-84.90429688,-121.35753632,0.115112310000086
-84.85056305,-121.41111755,0.115112310000086
-84.9153595,-121.36366272,0.115234380000174
-84.9077301,-121.35964966,0.115234380000174
-84.90827179,-121.35127258,0.115356450000036
-84.94550323,-121.42311096,0.115356450000036
-84.92260742,-121.3713913,0.115478520000124
-84.9102478,-121.36698151,0.115478520000124
-84.93231964,-121.38871765,0.115478520000124
-84.85621643,-121.41378784,0.115478520000124
-84.89280701,-121.3622818,0.115478520000124
-84.94477844,-121.42140198,0.115600590000213
-84.94512177,-121.42482758,0.115600590000213
-84.85256195,-121.42784119,0.115600590000213
-84.85352325,-121.3937912,0.115722660000074
-84.92539215,-121.37046814,0.115722660000074
-84.91783142,-121.37223053,0.115722660000074
-84.91914368,-121.38818359,0.115722660000074
-84.92886353,-121.37158203,0.115844730000163
-84.87297821,-121.44599915,0.115844730000163
-84.93578339,-121.35053253,0.115966800000024
-84.91531372,-121.36488342,0.115966800000024
-84.92553711,-121.38146973,0.116088870000112
-84.93079376,-121.40615845,0.116088870000112
-84.92243958,-121.37661743,0.116210940000201
-84.91538239,-121.37062836,0.116210940000201
-84.91053009,-121.36572266,0.116210940000201
-84.8986969,-121.35233307,0.116210940000201
-84.93895721,-121.39803314,0.116210940000201
-84.87210083,-121.44769287,0.116210940000201
-84.87078094,-121.44859314,0.116210940000201
-84.92057037,-121.37255096,0.116333010000062
-84.86981964,-121.42622375,0.116333010000062
-84.94213867,-121.41507721,0.116333010000062
-84.9151001,-121.37136841,0.116455080000151
-84.94046783,-121.42273712,0.116455080000151
-84.92253113,-121.41290283,0.116455080000151
-84.94967651,-121.40852356,0.116577150000012
-84.93139648,-121.39217377,0.116577150000012
-84.93930817,-121.41938019,0.116577150000012
-84.86338806,-121.44049072,0.116577150000012
-84.92272949,-121.37535858,0.1166992200001
-84.94776154,-121.40595245,0.1166992200001
-84.93070221,-121.38835144,0.1166992200001
-84.89904022,-121.36654663,0.1166992200001
-84.91517639,-121.36885071,0.116821290000189
-84.85417175,-121.41493225,0.116821290000189
-84.85825348,-121.43582916,0.116821290000189
-84.9224472,-121.36833191,0.11694336000005
-84.93328857,-121.3891983,0.11694336000005
-84.90424347,-121.35874176,0.11694336000005
-84.89962769,-121.35433197,0.11694336000005
-84.86834717,-121.42514038,0.11694336000005
-84.93801117,-121.35082245,0.117065430000139
-84.91851044,-121.3739624,0.117065430000139
-84.91520691,-121.36759186,0.117065430000139
-84.85986328,-121.38556671,0.117065430000139
-84.87412262,-121.44786072,0.117065430000139
-84.94660187,-121.41526794,0.117065430000139
-84.92141724,-121.36904144,0.1171875
-84.94397736,-121.42233276,0.1171875
-84.93034363,-121.38735199,0.1171875
-84.89743042,-121.35275269,0.1171875
-84.85399628,-121.41216278,0.1171875
-84.93376923,-121.41342926,0.1171875
-84.94869995,-121.39910889,0.1171875
-84.92813873,-121.38577271,0.117309570000089
-84.89983368,-121.35582733,0.117309570000089
-84.92254639,-121.39649963,0.117309570000089
-84.85108185,-121.42825317,0.117309570000089
-84.91410828,-121.3707962,0.117431640000177
-84.91081238,-121.36444092,0.117431640000177
-84.94197845,-121.42225647,0.117431640000177
-84.9384613,-121.42263794,0.117431640000177
-84.92622375,-121.3832016,0.117431640000177
-84.92031097,-121.37225342,0.117553710000038
-84.91194153,-121.36821747,0.117553710000038
-84.91043091,-121.36843109,0.117553710000038
-84.94302368,-121.4043808,0.117553710000038
-84.90516663,-121.35488892,0.117675780000127
-84.86006927,-121.41784668,0.117675780000127
-84.86646271,-121.39716339,0.117797850000215
-84.86064148,-121.39248657,0.117797850000215
-84.93292999,-121.37664795,0.117797850000215
-84.93322754,-121.39810181,0.117919920000077
-84.87281799,-121.44877625,0.117919920000077
-84.86386871,-121.44455719,0.117919920000077
-84.86247253,-121.42092133,0.118042000000059
-84.9407196,-121.41799927,0.118042000000059
-84.8567276,-121.43647766,0.118042000000059
-84.90779877,-121.35279846,0.118164070000148
-84.94216919,-121.42373657,0.118164070000148
-84.86567688,-121.4439621,0.118164070000148
-84.93755341,-121.41047668,0.118286140000009
-84.93734741,-121.41623688,0.118286140000009
-84.86882782,-121.44545746,0.118286140000009
-84.91132355,-121.36367035,0.118408210000098
-84.94322205,-121.39874268,0.118408210000098
-84.92510986,-121.37837982,0.118530280000186
-84.91320038,-121.36747742,0.118530280000186
-84.94104767,-121.39615631,0.118530280000186
-84.90210724,-121.35460663,0.118530280000186
-84.85511017,-121.38487244,0.118530280000186
-84.92875671,-121.38822937,0.118530280000186
-84.85092163,-121.43076324,0.118530280000186
-84.93869019,-121.42285919,0.118652350000048
-84.9449234,-121.41858673,0.118652350000048
-84.90374756,-121.35054779,0.118774420000136
-84.86148834,-121.42011261,0.118774420000136
-84.92874908,-121.38522339,0.118774420000136
-84.93650055,-121.41767883,0.118774420000136
-84.9171524,-121.36885071,0.118896490000225
-84.94596863,-121.4088974,0.118896490000225
-84.90567017,-121.35243225,0.119018560000086
-84.85851288,-121.39211273,0.119018560000086
-84.93266296,-121.37660217,0.119018560000086
-84.92185211,-121.37075043,0.119018560000086
-84.91065979,-121.36837769,0.119018560000086
-84.90418243,-121.35991669,0.119018560000086
-84.9300766,-121.38703156,0.119140630000174
-84.87004089,-121.39354706,0.119262700000036
-84.92669678,-121.37539673,0.119262700000036
-84.89911652,-121.35373688,0.119262700000036
-84.85505676,-121.38610077,0.119262700000036
-84.90809631,-121.3625412,0.119384770000124
-84.87243652,-121.42945099,0.119384770000124
-84.89050293,-121.37094116,0.119384770000124
-84.8650589,-121.44593048,0.119384770000124
-84.85877991,-121.43966675,0.119384770000124
-84.89752197,-121.35668182,0.119506840000213
-84.85655975,-121.4392395,0.119506840000213
-84.93818665,-121.42256165,0.119628910000074
-84.89228821,-121.37058258,0.119628910000074
-84.91034698,-121.38027954,0.119628910000074
-84.87354279,-121.44985962,0.119628910000074
-84.87088013,-121.44864655,0.119628910000074
-84.92188263,-121.37722778,0.119750980000163
-84.91249084,-121.36566925,0.119750980000163
-84.90161133,-121.35404968,0.119750980000163
-84.85257721,-121.41652679,0.119750980000163
-84.90804291,-121.3640213,0.119873050000024
-84.92530823,-121.3795929,0.119873050000024
-84.93099976,-121.38893127,0.119873050000024
-84.93876648,-121.42114258,0.119873050000024
-84.86618805,-121.44451904,0.119873050000024
-84.8613205,-121.39710999,0.119995120000112
-84.91166687,-121.36788177,0.119995120000112
-84.94944,-121.4068985,0.119995120000112
-84.90743256,-121.36750031,0.119995120000112
-84.8702774,-121.42636108,0.119995120000112
-84.91864777,-121.36860657,0.120117190000201
-84.91416168,-121.36820984,0.120117190000201
-84.92838287,-121.39373779,0.120117190000201
-84.92157745,-121.37069702,0.120239260000062
-84.91403961,-121.3719635,0.120239260000062
-84.85697937,-121.4196701,0.120239260000062
-84.94803619,-121.41184235,0.120239260000062
-84.93673706,-121.41520691,0.120239260000062
-84.93969727,-121.4254837,0.120239260000062
-84.89852142,-121.36807251,0.120239260000062
-84.94200897,-121.39663696,0.120361330000151
-84.94908142,-121.42588806,0.120361330000151
-84.87805176,-121.43335724,0.120361330000151
-84.87477875,-121.44976807,0.120361330000151
-84.90820313,-121.36676025,0.120483400000012
-84.91709137,-121.39060211,0.120483400000012
-84.87310028,-121.44306946,0.120483400000012
-84.86174011,-121.44393158,0.120483400000012
-84.90322876,-121.35006714,0.1206054700001
-84.92636871,-121.38430786,0.1206054700001
-84.9276123,-121.40698242,0.120727540000189
-84.929039,-121.38768768,0.12084961000005
-84.86593628,-121.38964844,0.12084961000005
-84.85578156,-121.38657379,0.12084961000005
-84.85434723,-121.39801025,0.120971680000139
-84.93013763,-121.37645721,0.120971680000139
-84.90386963,-121.36109161,0.120971680000139
-84.90032196,-121.35472107,0.120971680000139
-84.86483765,-121.42389679,0.120971680000139
-84.93003845,-121.4016571,0.120971680000139
-84.9228363,-121.38153076,0.120971680000139
-84.94081116,-121.42431641,0.120971680000139
-84.85706329,-121.43981171,0.120971680000139
-84.93332672,-121.37856293,0.12109375
-84.94927216,-121.40409851,0.12109375
-84.89659882,-121.35359955,0.121215820000089
-84.9332962,-121.39214325,0.121215820000089
-84.89810944,-121.37055969,0.121215820000089
-84.8724823,-121.4447937,0.121215820000089
-84.93190002,-121.38401031,0.121337890000177
-84.89852142,-121.35616302,0.121337890000177
-84.92823792,-121.39600372,0.121337890000177
-84.90164185,-121.37033844,0.121337890000177
-84.86601257,-121.44428253,0.121337890000177
-84.85923767,-121.39698029,0.121459960000038
-84.91352844,-121.3716507,0.121459960000038
-84.9369812,-121.4157486,0.121459960000038
-84.86309814,-121.44304657,0.121459960000038
-84.90554047,-121.35312653,0.121582030000127
-84.90078735,-121.3717804,0.121582030000127
-84.86802673,-121.44419098,0.121582030000127
-84.8963089,-121.35482025,0.121704100000215
-84.87203979,-121.4475174,0.121704100000215
-84.93035126,-121.37769318,0.121826170000077
-84.93058014,-121.38596344,0.121826170000077
-84.93005371,-121.38694,0.121826170000077
-84.87535858,-121.44677734,0.121826170000077
-84.92137146,-121.37689209,0.121948250000059
-84.90998077,-121.36525726,0.121948250000059
-84.94799805,-121.42781067,0.121948250000059
-84.94135284,-121.42459106,0.121948250000059
-84.9384613,-121.40032959,0.121948250000059
-84.85549164,-121.38751984,0.122070320000148
-84.91982269,-121.39810944,0.122070320000148
-84.93258667,-121.4176712,0.122070320000148
-84.85505676,-121.44017029,0.122070320000148
-84.93914795,-121.42301178,0.122192390000009
-84.90419006,-121.35056305,0.122192390000009
-84.8559494,-121.42006683,0.122192390000009
-84.88838196,-121.37030792,0.122192390000009
-84.87914276,-121.44983673,0.122192390000009
-84.90965271,-121.36775208,0.122314460000098
-84.94052887,-121.39552307,0.122314460000098
-84.93818665,-121.42312622,0.122314460000098
-84.93801117,-121.38017273,0.122436530000186
-84.88043976,-121.43637085,0.122436530000186
-84.87338257,-121.43013,0.122436530000186
-84.86477661,-121.42534637,0.122436530000186
-84.90525055,-121.37590027,0.122436530000186
-84.91287231,-121.36859131,0.122558600000048
-84.93537903,-121.39208984,0.122558600000048
-84.93460846,-121.39282227,0.122558600000048
-84.85959625,-121.42292786,0.122558600000048
-84.85643768,-121.43878174,0.122558600000048
-84.92974854,-121.38815308,0.122680670000136
-84.90139771,-121.35945892,0.122680670000136
-84.85687256,-121.43656158,0.122802740000225
-84.89906311,-121.3719101,0.122924810000086
-84.86123657,-121.39804077,0.123046880000174
-84.90939331,-121.3677063,0.123046880000174
-84.93753815,-121.42534637,0.123046880000174
-84.86210632,-121.4034729,0.123168950000036
-84.94541168,-121.39890289,0.123168950000036
-84.9484787,-121.42803192,0.123168950000036
-84.93105316,-121.38642883,0.123168950000036
-84.93019867,-121.38964844,0.123168950000036
-84.90419769,-121.37683105,0.123168950000036
-84.91114044,-121.36750793,0.123291020000124
-84.92211914,-121.42192078,0.123291020000124
-84.92082977,-121.3555069,0.123413090000213
-84.91229248,-121.3707962,0.123413090000213
-84.92977905,-121.38687897,0.123413090000213
-84.90769196,-121.35813141,0.123413090000213
-84.89763641,-121.35955811,0.123413090000213
-84.94029999,-121.40299988,0.123413090000213
-84.91886139,-121.3787384,0.123413090000213
-84.86450195,-121.44193268,0.123413090000213
-84.85954285,-121.43802643,0.123413090000213
-84.90782166,-121.35413361,0.123535160000074
-84.85249329,-121.38687897,0.123535160000074
-84.92690277,-121.38514709,0.123535160000074
-84.91517639,-121.39375305,0.123535160000074
-84.92842865,-121.4230423,0.123535160000074
-84.93182373,-121.38568878,0.123657230000163
-84.9259491,-121.38149261,0.123657230000163
-84.86485291,-121.3915329,0.123657230000163
-84.90808105,-121.36940002,0.123779300000024
-84.9144516,-121.37361145,0.123779300000024
-84.90306091,-121.36197662,0.123779300000024
-84.92430115,-121.39272308,0.123779300000024
-84.92006683,-121.37754059,0.123901370000112
-84.93305206,-121.41246796,0.123901370000112
-84.90573883,-121.35172272,0.124023440000201
-84.94148254,-121.39624786,0.124023440000201
-84.92137146,-121.38546753,0.124023440000201
-84.90557861,-121.38197327,0.124023440000201
-84.92896271,-121.38883209,0.124145510000062
-84.90036011,-121.36013031,0.124145510000062
-84.94547272,-121.41094208,0.124145510000062
-84.85891724,-121.43975067,0.124145510000062
-84.8588562,-121.39772034,0.124267580000151
-84.91040039,-121.36695099,0.124267580000151
-84.90888977,-121.36715698,0.124267580000151
-84.92767334,-121.40126801,0.124267580000151
-84.92080688,-121.40222931,0.124267580000151
-84.93335724,-121.42153168,0.124267580000151
-84.85752106,-121.39492035,0.124389650000012
-84.92952728,-121.38658905,0.124389650000012
-84.9493866,-121.40699768,0.1245117200001
-84.87783051,-121.44673157,0.1245117200001
-84.93466949,-121.4176178,0.1245117200001
-84.9246521,-121.41105652,0.1245117200001
-84.90795135,-121.3651123,0.124633790000189
-84.94168091,-121.39774323,0.124633790000189
-84.93094635,-121.38912964,0.12475586000005
-84.90029144,-121.36235809,0.12475586000005
-84.91053009,-121.38964081,0.12475586000005
-84.9300766,-121.38993073,0.124877930000139
-84.92311096,-121.35549164,0.125
-84.91770935,-121.40376282,0.125
-84.92758942,-121.4185791,0.125
-84.85823822,-121.43595123,0.125
-84.90878296,-121.3548584,0.125122070000089
-84.91104889,-121.36969757,0.125122070000089
-84.91413879,-121.37480927,0.125122070000089
-84.94042206,-121.39792633,0.125122070000089
-84.90267944,-121.35767365,0.125122070000089
-84.90093231,-121.35761261,0.125122070000089
-84.89917755,-121.35780334,0.125122070000089
-84.93266296,-121.41796875,0.125122070000089
-84.90786743,-121.36759186,0.125244140000177
-84.88667297,-121.44373322,0.125244140000177
-84.86701965,-121.44892883,0.125244140000177
-84.908638,-121.36685944,0.125488280000127
-84.93869781,-121.39685822,0.125488280000127
-84.90518188,-121.38446808,0.125488280000127
-84.90390778,-121.35043335,0.125610350000215
-84.9054184,-121.35798645,0.125610350000215
-84.89911652,-121.35929108,0.125610350000215
-84.86107635,-121.39134216,0.125610350000215
-84.92578888,-121.41293335,0.125610350000215
-84.93682098,-121.4002533,0.125732420000077
-84.9464035,-121.41253662,0.125732420000077
-84.91422272,-121.37164307,0.125732420000077
-84.91459656,-121.3602829,0.125854500000059
-84.9485321,-121.40216827,0.125854500000059
-84.87502289,-121.43257904,0.125854500000059
-84.9189682,-121.3848114,0.125854500000059
-84.93093872,-121.41784668,0.125854500000059
-84.92025757,-121.4099884,0.125854500000059
-84.90769958,-121.39093781,0.125854500000059
-84.87081909,-121.43068695,0.125976570000148
-84.89866638,-121.35751343,0.126098640000009
-84.88777161,-121.36681366,0.126098640000009
-84.93167114,-121.38935089,0.126220710000098
-84.9306488,-121.39006805,0.126220710000098
-84.85691071,-121.38844299,0.126220710000098
-84.86173248,-121.42562866,0.126220710000098
-84.85112762,-121.42053223,0.126220710000098
-84.92366028,-121.35327148,0.126342780000186
-84.91365051,-121.37425232,0.126342780000186
-84.89716339,-121.3579483,0.126342780000186
-84.90148926,-121.36334991,0.126342780000186
-84.9209671,-121.37870026,0.126342780000186
-84.91493225,-121.40455627,0.126342780000186
-84.92768097,-121.42436981,0.126342780000186
-84.90132904,-121.35024261,0.126464850000048
-84.86698151,-121.39425659,0.126464850000048
-84.92028809,-121.4162674,0.126464850000048
-84.92415619,-121.3815918,0.126586920000136
-84.89637756,-121.3586731,0.126586920000136
-84.85585022,-121.43502808,0.126586920000136
-84.9083786,-121.36681366,0.126708990000225
-84.92758942,-121.38394928,0.126708990000225
-84.90364075,-121.35839844,0.126708990000225
-84.86192322,-121.42711639,0.126708990000225
-84.92764282,-121.41860962,0.126708990000225
-84.92632294,-121.41950989,0.126708990000225
-84.90859222,-121.36805725,0.126831060000086
-84.88539886,-121.44390106,0.126831060000086
-84.92510223,-121.39984894,0.126831060000086
-84.92696381,-121.41454315,0.126831060000086
-84.85140228,-121.4311676,0.126831060000086
-84.92524719,-121.42379761,0.126831060000086
-84.94891357,-121.40540314,0.126953130000174
-84.89952087,-121.36200714,0.126953130000174
-84.91249084,-121.37177277,0.126953130000174
-84.91282654,-121.36042786,0.127075200000036
-84.94822693,-121.40312195,0.127075200000036
-84.92195892,-121.37999725,0.127075200000036
-84.88404846,-121.43908691,0.127075200000036
-84.86228943,-121.39208221,0.127075200000036
-84.94020844,-121.40556335,0.127075200000036
-84.91069031,-121.37236786,0.127197270000124
-84.93067932,-121.38878632,0.127197270000124
-84.91383362,-121.37088013,0.127197270000124
-84.91879272,-121.38757324,0.127319340000213
-84.9036026,-121.35936737,0.127441410000074
-84.85640717,-121.38787842,0.127441410000074
-84.9250412,-121.38480377,0.127441410000074
-84.90215302,-121.38877106,0.127441410000074
-84.92951965,-121.4270401,0.127563480000163
-84.86203766,-121.40331268,0.127685550000024
-84.91217804,-121.35713959,0.127685550000024
-84.90506744,-121.35240173,0.127685550000024
-84.90287018,-121.35083008,0.127685550000024
-84.90484619,-121.36715698,0.127685550000024
-84.86855316,-121.43055725,0.127685550000024
-84.91976166,-121.35173035,0.127807620000112
-84.91841888,-121.36374664,0.127929690000201
-84.90162659,-121.35829163,0.127929690000201
-84.94405365,-121.41139221,0.127929690000201
-84.85970306,-121.44087219,0.127929690000201
-84.85732269,-121.40274048,0.128173830000151
-84.91726685,-121.36179352,0.128173830000151
-84.92793274,-121.42191315,0.128173830000151
-84.88028717,-121.39964294,0.128295900000012
-84.92034149,-121.41629791,0.128295900000012
-84.93572998,-121.39466858,0.1284179700001
-84.89804077,-121.36090851,0.1284179700001
-84.85012817,-121.41967773,0.1284179700001
-84.92767334,-121.41889191,0.128540040000189
-84.92562866,-121.35054016,0.12866211000005
-84.91069794,-121.35605621,0.12866211000005
-84.90187836,-121.35027313,0.12866211000005
-84.90921021,-121.36952972,0.12866211000005
-84.88435364,-121.44454956,0.128784180000139
-84.91641998,-121.38967133,0.128784180000139
-84.92935181,-121.35164642,0.12890625
-84.90164948,-121.36502075,0.12890625
-84.91867828,-121.39611053,0.12890625
-84.90940857,-121.36704254,0.12890625
-84.91970062,-121.37960815,0.129028320000089
-84.86997223,-121.43280792,0.129028320000089
-84.85398865,-121.42404175,0.129028320000089
-84.91297913,-121.36958313,0.129028320000089
-84.90870667,-121.3710022,0.129150390000177
-84.94792175,-121.40454865,0.129150390000177
-84.91848755,-121.39861298,0.129150390000177
-84.94721222,-121.41641998,0.129150390000177
-84.92350006,-121.38269806,0.129272460000038
-84.85664368,-121.43888855,0.129272460000038
-84.91149902,-121.36206818,0.129394530000127
-84.90292358,-121.36428833,0.129394530000127
-84.93383026,-121.39832306,0.129394530000127
-84.90075684,-121.36147308,0.129516600000215
-84.90679169,-121.36842346,0.129516600000215
-84.90675354,-121.36966705,0.129516600000215
-84.92011261,-121.40376282,0.129516600000215
-84.91478729,-121.3764267,0.129638670000077
-84.92385101,-121.38247681,0.129638670000077
-84.87750244,-121.44754791,0.129638670000077
-84.91282654,-121.37510681,0.129760750000059
-84.90206146,-121.35974121,0.129882820000148
-84.91716766,-121.36447906,0.130004890000009
-84.90499878,-121.36158752,0.130004890000009
-84.90323639,-121.36203003,0.130004890000009
-84.92134857,-121.35334778,0.130126960000098
-84.91819,-121.3639679,0.130126960000098
-84.92610931,-121.35075378,0.130126960000098
-84.91676331,-121.36145782,0.130126960000098
-84.93431854,-121.39131165,0.130126960000098
-84.91918945,-121.37931061,0.130249030000186
-84.93424225,-121.39354706,0.130371100000048
-84.87822723,-121.40100098,0.130371100000048
-84.93586731,-121.40149689,0.130493170000136
-84.91345978,-121.37039948,0.130493170000136
-84.90814209,-121.36470795,0.130493170000136
-84.9197464,-121.41201782,0.130615240000225
-84.90836334,-121.37149811,0.130615240000225
-84.93113708,-121.3889389,0.130737310000086
-84.90635681,-121.36508179,0.130737310000086
-84.85218048,-121.43554688,0.130737310000086
-84.94391632,-121.41417694,0.130859380000174
-84.91925812,-121.40872955,0.130859380000174
-84.93193817,-121.44638062,0.130859380000174
-84.91143799,-121.36351776,0.130981450000036
-84.90070343,-121.3626709,0.130981450000036
-84.9074707,-121.37014008,0.131103520000124
-84.91256714,-121.37480927,0.131103520000124
-84.90035248,-121.35038757,0.131103520000124
-84.90236664,-121.36521912,0.131103520000124
-84.90705109,-121.37241364,0.131103520000124
-84.91069031,-121.38047028,0.131103520000124
-84.90196228,-121.36244965,0.131225590000213
-84.88487244,-121.40393829,0.131225590000213
-84.91909027,-121.3788681,0.131225590000213
-84.90245056,-121.35339355,0.131347660000074
-84.93962097,-121.39720154,0.131347660000074
-84.8602829,-121.42991638,0.131347660000074
-84.85825348,-121.44481659,0.131347660000074
-84.90068054,-121.35221863,0.131469730000163
-84.94715881,-121.44483185,0.131469730000163
-84.92062378,-121.36553955,0.131591800000024
-84.85449982,-121.42297363,0.131591800000024
-84.90924072,-121.39916992,0.131591800000024
-84.91841125,-121.36421967,0.131713870000112
-84.90653229,-121.36808777,0.131713870000112
-84.90911102,-121.38160706,0.131713870000112
-84.90344238,-121.42694855,0.131713870000112
-84.91812897,-121.36521149,0.131835940000201
-84.92108917,-121.38207245,0.131835940000201
-84.90574646,-121.36881256,0.131835940000201
-84.92427063,-121.38417053,0.131958010000062
-84.90894318,-121.36289978,0.132080080000151
-84.9466629,-121.40366364,0.132080080000151
-84.90518188,-121.36328125,0.132080080000151
-84.9184494,-121.36270142,0.132202150000012
-84.91092682,-121.36321259,0.132202150000012
-84.85810852,-121.42707062,0.132202150000012
-84.90807343,-121.3822937,0.132202150000012
-84.90596008,-121.35428619,0.1323242200001
-84.92337799,-121.38549805,0.132446290000189
-84.91280365,-121.37502289,0.13256836000005
-84.91912079,-121.38072968,0.13256836000005
-84.90473175,-121.3615036,0.13256836000005
-84.90689087,-121.37191772,0.132690430000139
-84.85270691,-121.43913269,0.132690430000139
-84.91631317,-121.35378265,0.1328125
-84.93347168,-121.40110016,0.1328125
-84.91255951,-121.39569092,0.1328125
-84.90003204,-121.3518219,0.132934570000089
-84.9108429,-121.37368774,0.133056640000177
-84.94567108,-121.40284729,0.133056640000177
-84.86174011,-121.43065643,0.133056640000177
-84.90426636,-121.36772156,0.133178710000038
-84.90351868,-121.36387634,0.133178710000038
-84.91468811,-121.37505341,0.133178710000038
-84.9081192,-121.38530731,0.133178710000038
-84.94010162,-121.44380188,0.133178710000038
-84.91428375,-121.35977936,0.133300780000127
-84.85224152,-121.42259216,0.133300780000127
-84.93057251,-121.35079193,0.133422850000215
-84.90714264,-121.35629272,0.133422850000215
-84.88059998,-121.4037323,0.133422850000215
-84.85478973,-121.40305328,0.133544920000077
-84.912323,-121.35845947,0.133544920000077
-84.91880035,-121.36692047,0.133544920000077
-84.8585968,-121.44763947,0.133544920000077
-84.93978882,-121.39888,0.133667000000059
-84.91660309,-121.36534119,0.133789070000148
-84.87471771,-121.39978027,0.133789070000148
-84.92166138,-121.38562775,0.133789070000148
-84.9493866,-121.42243195,0.133789070000148
-84.92054749,-121.36672211,0.133911140000009
-84.9181366,-121.36387634,0.134033210000098
-84.90593719,-121.36224365,0.134033210000098
-84.89665985,-121.40973663,0.134033210000098
-84.91069031,-121.36486053,0.134155280000186
-84.90686798,-121.36427307,0.134155280000186
-84.89746094,-121.38398743,0.134277350000048
-84.89875793,-121.35045624,0.134399420000136
-84.91391754,-121.37056732,0.134399420000136
-84.90789032,-121.37155151,0.134399420000136
-84.90614319,-121.35572815,0.134399420000136
-84.85784149,-121.42674255,0.134399420000136
-84.91184998,-121.36492157,0.134521490000225
-84.91155243,-121.3741684,0.134521490000225
-84.94589996,-121.40305328,0.134521490000225
-84.93418884,-121.40218353,0.134521490000225
-84.90656281,-121.42604828,0.134521490000225
-84.92302704,-121.36727142,0.134643560000086
-84.91062164,-121.37213135,0.134643560000086
-84.90380096,-121.36640167,0.134643560000086
-84.94178772,-121.41407013,0.134643560000086
-84.85259247,-121.44140625,0.134643560000086
-84.91506958,-121.3657608,0.134765630000174
-84.90722656,-121.36850739,0.134765630000174
-84.86151123,-121.42935181,0.134765630000174
-84.9250412,-121.39093018,0.134765630000174
-84.89893341,-121.36228943,0.134765630000174
-84.90460968,-121.38581085,0.134765630000174
-84.91348267,-121.36070251,0.134887700000036
-84.90245819,-121.35333252,0.135009770000124
-84.90193939,-121.35407257,0.135009770000124
-84.85119629,-121.42324829,0.135009770000124
-84.89779663,-121.36396027,0.135009770000124
-84.89952087,-121.35122681,0.135131840000213
-84.90193939,-121.38485718,0.135131840000213
-84.91118622,-121.37254333,0.135253910000074
-84.90090179,-121.35970306,0.135253910000074
-84.90048218,-121.36192322,0.135253910000074
-84.9054718,-121.3846283,0.135253910000074
-84.92373657,-121.38378906,0.135498050000024
-84.8518219,-121.39746094,0.135620120000112
-84.92153931,-121.38220978,0.135620120000112
-84.91049194,-121.36006927,0.135742190000201
-84.9143219,-121.365448,0.135742190000201
-84.94220734,-121.4006424,0.135742190000201
-84.8736496,-121.44046783,0.135864260000062
-84.91171265,-121.36125946,0.135986330000151
-84.94406891,-121.41752625,0.135986330000151
-84.90145874,-121.37529755,0.135986330000151
-84.90988159,-121.35984039,0.136108400000012
-84.9247818,-121.36678314,0.136108400000012
-84.9094696,-121.3685379,0.136108400000012
-84.91908264,-121.38062286,0.136108400000012
-84.8680191,-121.43652344,0.136108400000012
-84.92913818,-121.39678955,0.136108400000012
-84.85561371,-121.40711975,0.1362304700001
-84.9093399,-121.37254333,0.1362304700001
-84.91638947,-121.37876892,0.1362304700001
-84.87999725,-121.44515991,0.1362304700001
-84.94999695,-121.40712738,0.13647461000005
-84.88497162,-121.4067688,0.136596680000139
-84.89911652,-121.36460876,0.13671875
-84.90554047,-121.3658905,0.13671875
-84.94857025,-121.42440796,0.13671875
-84.90293121,-121.36313629,0.13671875
-84.91146088,-121.36858368,0.136840820000089
-84.90387726,-121.35532379,0.136840820000089
-84.9053421,-121.36437988,0.136840820000089
-84.90235138,-121.36377716,0.136840820000089
-84.89936829,-121.3631897,0.136840820000089
-84.91667938,-121.35201263,0.136962890000177
-84.92223358,-121.36792755,0.136962890000177
-84.92146301,-121.36865234,0.136962890000177
-84.92368317,-121.38523865,0.136962890000177
-84.90014648,-121.36219788,0.136962890000177
-84.91306305,-121.37496948,0.136962890000177
-84.90847015,-121.36798096,0.137084960000038
-84.93274689,-121.40235901,0.137084960000038
-84.89829254,-121.35852051,0.137084960000038
-84.891922,-121.37255859,0.137084960000038
-84.89083099,-121.37373352,0.137084960000038
-84.85733795,-121.4458313,0.137084960000038
-84.92073822,-121.38314056,0.137207030000127
-84.91023254,-121.35977173,0.137329100000215
-84.92027283,-121.36660004,0.137329100000215
-84.85179138,-121.44313812,0.137329100000215
-84.85784149,-121.44914246,0.137329100000215
-84.90074158,-121.35887909,0.137451170000077
-84.91278839,-121.35791016,0.137451170000077
-84.89672089,-121.36534119,0.137451170000077
-84.93399811,-121.35176849,0.137451170000077
-84.90879822,-121.36547089,0.137451170000077
-84.91132355,-121.37255859,0.137451170000077
-84.92711639,-121.37132263,0.137573250000059
-84.8990097,-121.35088348,0.137573250000059
-84.89652252,-121.35054779,0.137573250000059
-84.86045837,-121.42971802,0.137573250000059
-84.85083771,-121.42565918,0.137573250000059
-84.91889954,-121.38397217,0.137573250000059
-84.89877319,-121.35800171,0.137695320000148
-84.85352325,-121.39830017,0.137695320000148
-84.92398071,-121.3677063,0.137695320000148
-84.86206055,-121.44996643,0.137695320000148
-84.9180603,-121.36501312,0.137817390000009
-84.90792847,-121.36894226,0.137817390000009
-84.93469238,-121.3925705,0.137817390000009
-84.89373016,-121.35922241,0.137817390000009
-84.94989777,-121.35095978,0.137939460000098
-84.91103363,-121.37352753,0.137939460000098
-84.93762207,-121.39466858,0.137939460000098
-84.90042877,-121.3531723,0.137939460000098
-84.89965057,-121.36190033,0.137939460000098
-84.8973999,-121.36183167,0.137939460000098
-84.86363983,-121.43206787,0.137939460000098
-84.93699646,-121.40921783,0.137939460000098
-84.90287018,-121.36276245,0.138061530000186
-84.90106201,-121.35060883,0.138183600000048
-84.90323639,-121.36701965,0.138183600000048
-84.8557663,-121.42780304,0.138183600000048
-84.90278625,-121.36239624,0.138183600000048
-84.89084625,-121.36747742,0.138183600000048
-84.93273163,-121.39124298,0.138305670000136
-84.89453888,-121.41203308,0.138305670000136
-84.94773865,-121.42285919,0.138305670000136
-84.90940094,-121.35269928,0.138427740000225
-84.91507721,-121.36414337,0.138427740000225
-84.91391754,-121.36911011,0.138427740000225
-84.91008759,-121.37174225,0.138427740000225
-84.93904877,-121.39694977,0.138549810000086
-84.89968109,-121.36064911,0.138549810000086
-84.85852051,-121.44744873,0.138549810000086
-84.85061646,-121.40039825,0.138671880000174
-84.9070282,-121.36562347,0.138671880000174
-84.90738678,-121.36988831,0.138793950000036
-84.91870117,-121.3837204,0.138793950000036
-84.89280701,-121.36186981,0.138793950000036
-84.94419861,-121.44825745,0.138793950000036
-84.9184494,-121.36824036,0.138916020000124
-84.92243958,-121.38413239,0.138916020000124
-84.9058075,-121.35681915,0.138916020000124
-84.90200043,-121.36621094,0.138916020000124
-84.90817261,-121.37084961,0.138916020000124
-84.90815735,-121.36914825,0.139038090000213
-84.91972351,-121.36752319,0.139160160000074
-84.94393921,-121.40009308,0.139160160000074
-84.90302277,-121.36547852,0.139160160000074
-84.94560242,-121.40289307,0.139282230000163
-84.93582153,-121.42710114,0.139282230000163
-84.85473633,-121.44465637,0.139282230000163
-84.91535187,-121.37111664,0.139404300000024
-84.91171265,-121.36750031,0.139526370000112
-84.87669373,-121.4457016,0.139526370000112
-84.93817902,-121.4108429,0.139526370000112
-84.88839722,-121.36730194,0.139526370000112
-84.91914368,-121.36974335,0.139648440000201
-84.91616058,-121.36914063,0.139648440000201
-84.86112976,-121.43167877,0.139648440000201
-84.89154816,-121.36881256,0.139648440000201
-84.92559052,-121.37143707,0.139770510000062
-84.9119873,-121.37425995,0.139770510000062
-84.90086365,-121.36264038,0.139770510000062
-84.92545319,-121.3940506,0.139770510000062
-84.89215851,-121.3578186,0.139770510000062
-84.8915329,-121.36579895,0.139770510000062
-84.89541626,-121.36045074,0.139892580000151
-84.90431976,-121.36374664,0.139892580000151
-84.85106659,-121.42559052,0.139892580000151
-84.9017334,-121.3638382,0.139892580000151
-84.89684296,-121.35894012,0.139892580000151
-84.91603851,-121.36486816,0.140014650000012
-84.90110016,-121.35488129,0.140014650000012
-84.85923004,-121.4485321,0.140014650000012
-84.91795349,-121.36768341,0.1401367200001
-84.93392944,-121.39198303,0.1401367200001
-84.92295837,-121.38311005,0.1401367200001
-84.89498138,-121.35868073,0.1401367200001
-84.90844727,-121.35961151,0.140258790000189
-84.85793304,-121.44918823,0.140258790000189
-84.89674377,-121.3504715,0.14038086000005
-84.94622803,-121.42051697,0.14038086000005
-84.91462708,-121.37757111,0.140625
-84.89438629,-121.36115265,0.140625
-84.86083221,-121.43289185,0.140625
-84.90933228,-121.37272644,0.140625
-84.91145325,-121.3674469,0.140747070000089
-84.92973328,-121.39031982,0.140747070000089
-84.85256195,-121.44425964,0.140747070000089
-84.88928986,-121.35961914,0.140869140000177
-84.85246277,-121.40196991,0.140991210000038
-84.90827179,-121.36508942,0.140991210000038
-84.92388916,-121.38510895,0.140991210000038
-84.90418243,-121.3677063,0.140991210000038
-84.85404968,-121.40470123,0.141113280000127
-84.89904785,-121.36403656,0.141113280000127
-84.9214325,-121.38352966,0.141235350000215
-84.85240173,-121.44651031,0.141235350000215
-84.91927338,-121.38069916,0.141357420000077
-84.9380188,-121.41036224,0.141357420000077
-84.9193573,-121.36994171,0.141479500000059
-84.92318726,-121.3833313,0.141479500000059
-84.90901947,-121.41964722,0.141479500000059
-84.89589691,-121.360672,0.141479500000059
-84.92527008,-121.39380646,0.141479500000059
-84.90158081,-121.35508728,0.141601570000148
-84.90206146,-121.3633728,0.141601570000148
-84.90892029,-121.3600769,0.141723640000009
-84.91858673,-121.37065125,0.141723640000009
-84.88488007,-121.36179352,0.141723640000009
-84.94415283,-121.4002533,0.141967780000186
-84.86943054,-121.43737793,0.141967780000186
-84.89063263,-121.35572815,0.141967780000186
-84.94824982,-121.35032654,0.142089850000048
-84.9417038,-121.39866638,0.142089850000048
-84.89691925,-121.35192108,0.142089850000048
-84.8669281,-121.43704224,0.142089850000048
-84.85575867,-121.4487915,0.142089850000048
-84.90825653,-121.36505127,0.142211920000136
-84.9090271,-121.37207794,0.142211920000136
-84.92971039,-121.39026642,0.142211920000136
-84.90084076,-121.35455322,0.142211920000136
-84.89486694,-121.36135864,0.142211920000136
-84.90673828,-121.3655014,0.142211920000136
-84.91539001,-121.37654114,0.142333990000225
-84.90515137,-121.37539673,0.142456060000086
-84.8661499,-121.43801117,0.142456060000086
-84.92933655,-121.39990997,0.142456060000086
-84.8873291,-121.35648346,0.142456060000086
-84.91416931,-121.36772919,0.142578130000174
-84.90563202,-121.36871338,0.142578130000174
-84.88513184,-121.35579681,0.142578130000174
-84.85128784,-121.44519043,0.142578130000174
-84.94851685,-121.37149811,0.142700200000036
-84.90715027,-121.36023712,0.142822270000124
-84.91832733,-121.37059784,0.142944340000213
-84.900383,-121.35301208,0.142944340000213
-84.89579773,-121.36312103,0.142944340000213
-84.85906219,-121.43276215,0.142944340000213
-84.90331268,-121.3631134,0.143066410000074
-84.89044952,-121.35843658,0.143066410000074
-84.85001373,-121.42620087,0.143066410000074
-84.93894958,-121.41195679,0.143066410000074
-84.90641785,-121.36309814,0.143188480000163
-84.92871857,-121.38970184,0.143188480000163
-84.86022949,-121.44991302,0.143188480000163
-84.85214233,-121.40296936,0.143310550000024
-84.92362213,-121.38478088,0.143310550000024
-84.93826294,-121.39627075,0.143310550000024
-84.9182663,-121.38009644,0.143310550000024
-84.90409088,-121.36708832,0.143310550000024
-84.89781952,-121.36058044,0.143310550000024
-84.9087677,-121.37203217,0.143432620000112
-84.90342712,-121.35910034,0.143432620000112
-84.90631866,-121.37020111,0.143554690000201
-84.86271667,-121.43536377,0.143554690000201
-84.94877625,-121.42127228,0.143554690000201
-84.89862061,-121.35292816,0.143676760000062
-84.89433289,-121.36205292,0.143676760000062
-84.9214325,-121.35178375,0.143798830000151
-84.94277191,-121.41803741,0.143798830000151
-84.91034698,-121.37386322,0.143798830000151
-84.94998932,-121.3500824,0.143920900000012
-84.9123764,-121.42318726,0.143920900000012
-84.90248871,-121.35704803,0.143920900000012
-84.88137054,-121.35627747,0.143920900000012
-84.85404968,-121.44892883,0.143920900000012
-84.94998169,-121.36628723,0.1440429700001
-84.94805145,-121.36438751,0.144165040000189
-84.91488647,-121.36820221,0.144165040000189
-84.94339752,-121.3996582,0.144165040000189
-84.94699097,-121.42189026,0.144165040000189
-84.90122223,-121.36562347,0.144165040000189
-84.91834259,-121.42462158,0.14428711000005
-84.90712738,-121.36044312,0.14428711000005
-84.9291687,-121.39967346,0.14428711000005
-84.90544128,-121.36946869,0.14453125
-84.85359955,-121.39775848,0.144653320000089
-84.92186737,-121.36865997,0.144653320000089
-84.92060089,-121.36936951,0.144653320000089
-84.90267944,-121.35852814,0.144653320000089
-84.90287781,-121.36804962,0.144775390000177
-84.91439819,-121.38021088,0.144775390000177
-84.89238739,-121.35968781,0.144897460000038
-84.89028168,-121.3549881,0.144897460000038
-84.88278198,-121.36116791,0.145019530000127
-84.93231964,-121.39376068,0.145141600000215
-84.93501282,-121.40866852,0.145141600000215
-84.94985199,-121.35835266,0.145263670000077
-84.93016815,-121.39067841,0.145263670000077
-84.9076767,-121.42124176,0.145263670000077
-84.92626953,-121.37178802,0.145385750000059
-84.91361237,-121.36862183,0.145385750000059
-84.89437866,-121.35974121,0.145385750000059
-84.90724182,-121.3644104,0.145385750000059
-84.90155792,-121.41703796,0.145385750000059
-84.94728088,-121.42192841,0.145385750000059
-84.85433197,-121.44922638,0.145385750000059
-84.8526001,-121.41632843,0.145507820000148
-84.90968323,-121.36624146,0.145507820000148
-84.93623352,-121.39637756,0.145507820000148
-84.94304657,-121.41834259,0.145507820000148
-84.9106369,-121.37715912,0.145507820000148
-84.88049316,-121.35523224,0.145507820000148
-84.90899658,-121.37197113,0.145629890000009
-84.88941193,-121.3599472,0.145629890000009
-84.94953918,-121.3507309,0.145751960000098
-84.90132141,-121.35369873,0.145751960000098
-84.86293793,-121.43553925,0.145751960000098
-84.86827087,-121.4407196,0.145751960000098
-84.91609192,-121.36894226,0.145874030000186
-84.9017334,-121.35671234,0.145874030000186
-84.8920517,-121.3621521,0.145874030000186
-84.9127121,-121.3653183,0.145996100000048
-84.92893219,-121.38986969,0.145996100000048
-84.90619659,-121.42017365,0.145996100000048
-84.90409851,-121.36078644,0.145996100000048
-84.94551849,-121.41577911,0.145996100000048
-84.88700867,-121.35875702,0.145996100000048
-84.90512848,-121.36682892,0.146118170000136
-84.94577789,-121.40267181,0.146118170000136
-84.94039154,-121.39923859,0.146118170000136
-84.92098236,-121.38034821,0.146118170000136
-84.92913055,-121.43067169,0.146118170000136
-84.8843689,-121.3572998,0.146118170000136
-84.91143799,-121.36576843,0.146240240000225
-84.89547729,-121.36425018,0.146240240000225
-84.85382843,-121.40505981,0.146362310000086
-84.91886139,-121.36826324,0.146362310000086
-84.90873718,-121.36392975,0.146362310000086
-84.93157959,-121.39295197,0.146362310000086
-84.92799377,-121.38781738,0.146362310000086
-84.91970825,-121.38079834,0.146362310000086
-84.90074921,-121.35591125,0.146362310000086
-84.90151978,-121.36295319,0.146362310000086
-84.93662262,-121.41107178,0.146362310000086
-84.90808868,-121.35649109,0.146484380000174
-84.90451813,-121.38482666,0.146484380000174
-84.90743256,-121.36588287,0.146484380000174
-84.8528595,-121.4296875,0.146484380000174
-84.91602325,-121.38262177,0.146484380000174
-84.92250061,-121.37187195,0.146606450000036
-84.88124847,-121.35881805,0.146606450000036
-84.92362213,-121.38366699,0.146728520000124
-84.90190125,-121.3500824,0.146728520000124
-84.90583801,-121.36055756,0.146972660000074
-84.90409088,-121.36074829,0.146972660000074
-84.86242676,-121.43522644,0.146972660000074
-84.85368347,-121.44844818,0.146972660000074
-84.93158722,-121.37690735,0.147094730000163
-84.90644836,-121.36508179,0.147216800000024
-84.90550232,-121.36328888,0.147338870000112
-84.85700989,-121.43254852,0.147338870000112
-84.94847107,-121.42030334,0.147338870000112
-84.9417572,-121.41625977,0.147338870000112
-84.8850708,-121.35838318,0.147338870000112
-84.91954041,-121.37000275,0.147460940000201
-84.91729736,-121.36968231,0.147460940000201
-84.93373108,-121.39572906,0.147460940000201
-84.89627838,-121.36224365,0.147460940000201
-84.94000244,-121.41636658,0.147460940000201
-84.90087891,-121.36489105,0.147460940000201
-84.9176178,-121.3850174,0.147583010000062
-84.91983795,-121.35655975,0.147705080000151
-84.90991211,-121.36617279,0.147705080000151
-84.90158081,-121.3684082,0.147705080000151
-84.90599823,-121.37006378,0.147705080000151
-84.93154907,-121.37787628,0.147827150000012
-84.92884827,-121.37628937,0.147827150000012
-84.92521667,-121.37242126,0.147827150000012
