"X","Y","Z"
-85.05197906,-121.42946625,0.0867919899999379
-85.05097198,-121.42347717,0.0885009799999352
-85.05092621,-121.42337799,0.091308589999926
-85.05088043,-121.43305206,0.0926513700001124
-85.0520401,-121.43739319,0.0930175800001507
-85.05214691,-121.42813873,0.09375
-85.05384064,-121.43009186,0.0938720700000886
-85.05470276,-121.4355011,0.0946044899999379
-85.05255127,-121.42643738,0.0959472600000026
-85.05008698,-121.42565918,0.0964355500000238
-85.05426788,-121.42861938,0.0965576200001124
-85.05436707,-121.43647766,0.0975341800001388
-85.05226898,-121.42767334,0.098754880000115
-85.05621338,-121.42939758,0.0988769499999762
-85.05776978,-121.44184875,0.0988769499999762
-85.05545044,-121.44178772,0.0997314400001414
-85.06005859,-121.44184875,0.0998535100000026
-85.05246735,-121.4262619,0.100952150000012
-85.056633,-121.43766022,0.101196289999962
-85.05467987,-121.43444824,0.102050780000127
-85.05969238,-121.44261169,0.102172849999988
-85.05867004,-121.43769836,0.102416989999938
-85.05716705,-121.43544006,0.102783199999976
-85.05956268,-121.44329071,0.104858400000012
-85.05651855,-121.43727112,0.105102539999962
-85.05809784,-121.43998718,0.10546875
-85.05821228,-121.43074036,0.106445310000026
-85.059021,-121.43591309,0.107177730000103
-85.0500412,-121.43444061,0.107421870000053
-85.05039215,-121.42386627,0.108032229999935
-85.05178833,-121.42816925,0.108276370000112
-85.05458069,-121.43421936,0.108520510000062
-85.05280304,-121.4330368,0.1088867200001
-85.05802917,-121.43118286,0.109252930000139
-85.06192017,-121.43392944,0.10961913999995
-85.05496979,-121.43251801,0.110717770000065
-85.05132294,-121.42970276,0.110839839999926
-85.06208801,-121.44223785,0.111938479999935
-85.06178284,-121.43335724,0.112060550000024
-85.05197906,-121.43538666,0.112060550000024
-85.05683136,-121.43537903,0.1127929700001
-85.05431366,-121.43560028,0.114013670000077
-85.05925751,-121.43482208,0.114135739999938
-85.06481934,-121.43952179,0.114868160000015
-85.05660248,-121.43559265,0.115112299999964
-85.0606308,-121.43779755,0.115722660000074
-85.06738281,-121.43840027,0.116821289999962
-85.05886078,-121.35559082,0.117065430000139
-85.05307007,-121.43959045,0.117065430000139
-85.0609436,-121.43689728,0.11743163999995
-85.06838226,-121.44326019,0.117797849999988
-85.07266235,-121.44416046,0.117919920000077
-85.06424713,-121.44181061,0.117919920000077
-85.06002808,-121.35144806,0.118652339999926
-85.05634308,-121.35706329,0.118774410000015
-85.05754089,-121.44032288,0.119750979999935
-85.06980133,-121.44645691,0.119995120000112
-85.05619049,-121.43869019,0.119995120000112
-85.05136108,-121.42778778,0.120239260000062
-85.06436157,-121.44119263,0.120361330000151
-85.05529022,-121.35082245,0.1206054700001
-85.07174683,-121.44730377,0.120727539999962
-85.05822754,-121.43755341,0.121704099999988
-85.0690918,-121.44065857,0.121704099999988
-85.0617981,-121.35273743,0.121948239999938
-85.05709076,-121.35343933,0.122436520000065
-85.06066132,-121.43701172,0.122680660000015
-85.05137634,-121.427948,0.122802730000103
-85.06166077,-121.36193085,0.123046870000053
-85.05976105,-121.35157776,0.123168940000141
-85.05410004,-121.43569946,0.123168940000141
-85.05020905,-121.35355377,0.123535160000074
-85.05410767,-121.43501282,0.123535160000074
-85.07060242,-121.44309235,0.123535160000074
-85.05252075,-121.43226624,0.123657229999935
-85.05374908,-121.43930817,0.123779300000024
-85.07206726,-121.44528961,0.124877930000139
-85.05312347,-121.43029785,0.125122070000089
-85.05982971,-121.37779999,0.125366210000038
-85.05555725,-121.35848999,0.125610349999988
-85.05062866,-121.44315338,0.125610349999988
-85.06484985,-121.44624329,0.125854489999938
-85.05928802,-121.35311127,0.125976560000026
-85.07402802,-121.44738007,0.126342770000065
-85.06331635,-121.44500732,0.126342770000065
-85.05771637,-121.4389801,0.127197260000003
-85.07505798,-121.44380188,0.127685550000024
-85.0717392,-121.4462738,0.127685550000024
-85.05245209,-121.43211365,0.128173830000151
-85.06797791,-121.44419098,0.129028320000089
-85.05104828,-121.44273376,0.129028320000089
-85.06417084,-121.44062805,0.12915038999995
-85.06903076,-121.44802856,0.129760739999938
-85.07185364,-121.44564819,0.130004880000115
-85.05584717,-121.43746185,0.130126949999976
-85.05396271,-121.43451691,0.130493160000015
-85.07472229,-121.44477081,0.130737299999964
-85.06880188,-121.44087219,0.131225589999985
-85.05153656,-121.4352417,0.131469729999935
-85.06446838,-121.43971252,0.131591800000024
-85.0700531,-121.44442749,0.131591800000024
-85.05491638,-121.44450378,0.131958010000062
-85.07157898,-121.44689178,0.132446289999962
-85.06475067,-121.44599915,0.13256836000005
-85.05455017,-121.43251801,0.132690430000139
-85.05549622,-121.44766235,0.133422849999988
-85.06938934,-121.44625854,0.133911130000115
-85.06832886,-121.44238281,0.134277339999926
-85.07221222,-121.44387054,0.134399410000015
-85.05573273,-121.4370575,0.134643549999964
-85.05191803,-121.44944,0.135742189999974
-85.07041168,-121.44264984,0.135864260000062
-85.05123901,-121.44538116,0.136108400000012
-85.05171967,-121.44267273,0.13671875
-85.06572723,-121.44229126,0.137207030000127
-85.06385803,-121.44064331,0.137207030000127
-85.06665039,-121.4479599,0.137695310000026
-85.06221771,-121.43891144,0.137817380000115
-85.05412292,-121.43891144,0.137817380000115
-85.05152893,-121.44242096,0.137939449999976
-85.05433655,-121.44155884,0.138061520000065
-85.07057953,-121.44969177,0.138061520000065
-85.05506897,-121.44754028,0.138061520000065
-85.07375336,-121.44773865,0.138305660000015
-85.0528717,-121.44178772,0.138916010000003
-85.06771851,-121.44333649,0.139038089999985
-85.06887817,-121.4477005,0.139282229999935
-85.06358337,-121.44187927,0.139648439999974
-85.06507111,-121.44412231,0.139770510000062
-85.05449677,-121.44119263,0.140014650000012
-85.05515289,-121.44525146,0.140258789999962
-85.05819702,-121.44039154,0.14038086000005
-85.05893707,-121.44303894,0.140625
-85.07778931,-121.44885254,0.14086913999995
-85.05090332,-121.43563843,0.14086913999995
-85.05211639,-121.43919373,0.141479489999938
-85.06874847,-121.44838715,0.141723630000115
-85.05760193,-121.44647217,0.141723630000115
-85.05451965,-121.4442215,0.141845699999976
-85.07051086,-121.4495163,0.142822260000003
-85.06324768,-121.44168091,0.142944339999985
-85.05368805,-121.44354248,0.143066410000074
-85.05989075,-121.44001007,0.143066410000074
-85.05175781,-121.43312073,0.143188479999935
-85.06247711,-121.44528961,0.143310550000024
-85.05246735,-121.4389267,0.143432620000112
-85.07285309,-121.44976044,0.143920900000012
-85.05301666,-121.43860626,0.143920900000012
-85.05544281,-121.43726349,0.144165039999962
-85.05930328,-121.44972992,0.144653320000089
-85.0634079,-121.44248962,0.14477538999995
-85.06617737,-121.43984222,0.145385739999938
-85.0617981,-121.43934631,0.145385739999938
-85.0526123,-121.43810272,0.145507810000026
-85.05523682,-121.44618988,0.145751949999976
-85.06323242,-121.44161224,0.146362299999964
-85.07125092,-121.44587708,0.146972660000074
-85.0682373,-121.4498291,0.147094729999935
-85.05579376,-121.4439621,0.147338870000112
-85.06381226,-121.44477844,0.147460939999974
-85.07595825,-121.44641876,0.147583010000062
-85.0683136,-121.44033051,0.147705080000151
-85.05423737,-121.44145966,0.147827150000012
-85.05448151,-121.43834686,0.148071289999962
-85.05693054,-121.44801331,0.14819336000005
-85.06468201,-121.43849945,0.148315430000139
-85.06887817,-121.44682312,0.14868163999995
-85.05046844,-121.43473053,0.149047849999988
-85.05435181,-121.4408493,0.149780270000065
-85.05580139,-121.44412231,0.149902339999926
