"X","Y","Z"
-84.93226624,-121.23963928,0.250122070000089
-84.94950867,-121.20995331,0.250122070000089
-84.94275665,-121.212677,0.250244140000177
-84.93978119,-121.21431732,0.250244140000177
-84.93836975,-121.24720001,0.250366210000038
-84.94571686,-121.20974731,0.250488280000127
-84.93084717,-121.19882965,0.250488280000127
-84.93878937,-121.20082855,0.250610350000215
-84.9465332,-121.22485352,0.250732420000077
-84.93965149,-121.21822357,0.250854500000059
-84.93554688,-121.20021057,0.251098640000009
-84.93023682,-121.20980072,0.251098640000009
-84.9295578,-121.2155304,0.251098640000009
-84.92948151,-121.21803284,0.251098640000009
-84.94589233,-121.21871185,0.251098640000009
-84.93412018,-121.22807312,0.251098640000009
-84.94853973,-121.20735168,0.251220710000098
-84.94883728,-121.20713806,0.251220710000098
-84.93293762,-121.21138,0.251220710000098
-84.94129181,-121.20935822,0.251342780000186
-84.93720245,-121.23883057,0.251342780000186
-84.93477631,-121.22612,0.251342780000186
-84.9306488,-121.20478821,0.251464850000048
-84.92904663,-121.20774078,0.251586920000136
-84.92819214,-121.20346069,0.251586920000136
-84.93379974,-121.21565247,0.251586920000136
-84.94700623,-121.21102905,0.251708990000225
-84.92949677,-121.2092514,0.251831060000086
-84.93254089,-121.2161026,0.251831060000086
-84.94711304,-121.20606232,0.251953130000174
-84.93031311,-121.19950867,0.252075200000036
-84.94149017,-121.21437073,0.252075200000036
-84.93570709,-121.22419739,0.252075200000036
-84.94613647,-121.21273041,0.252197270000124
-84.94538879,-121.20498657,0.252319340000213
-84.93766785,-121.22158813,0.252319340000213
-84.94306183,-121.21176147,0.252441410000074
-84.93950653,-121.20130157,0.252441410000074
-84.93808746,-121.23578644,0.252563480000163
-84.93682861,-121.19876099,0.252563480000163
-84.93019867,-121.21851349,0.252685550000024
-84.93949127,-121.22099304,0.252807620000112
-84.92861176,-121.22540283,0.252807620000112
-84.94563293,-121.20941925,0.252929690000201
-84.93652344,-121.20068359,0.252929690000201
-84.93701172,-121.21646881,0.252929690000201
-84.93543243,-121.22176361,0.253051760000062
-84.92929077,-121.20770264,0.253051760000062
-84.94523621,-121.21492767,0.253051760000062
-84.93916321,-121.21000671,0.253051760000062
-84.92951965,-121.2299881,0.253173830000151
-84.92797089,-121.20188904,0.253295900000012
-84.93087769,-121.23512268,0.253295900000012
-84.94689941,-121.20451355,0.2534179700001
-84.94641876,-121.22727203,0.2534179700001
-84.93949127,-121.20150757,0.2534179700001
-84.93737793,-121.21520233,0.253540040000189
-84.92881775,-121.1986618,0.253540040000189
-84.94278717,-121.20628357,0.253540040000189
-84.94238281,-121.21321106,0.25366211000005
-84.94908142,-121.21749878,0.253784180000139
-84.94306946,-121.2172699,0.253784180000139
-84.93119812,-121.21024323,0.25390625
-84.93730164,-121.22058105,0.25390625
-84.93601227,-121.22424316,0.25390625
-84.92829132,-121.19937897,0.254028320000089
-84.9408493,-121.22010803,0.254028320000089
-84.93724823,-121.19278717,0.254150390000177
-84.92987061,-121.24790192,0.254272460000038
-84.94294739,-121.2023468,0.254272460000038
-84.92922974,-121.20915985,0.254394530000127
-84.93728638,-121.21517944,0.254394530000127
-84.9309082,-121.21897125,0.254394530000127
-84.93997955,-121.2170105,0.254516600000215
-84.93605042,-121.18766785,0.254516600000215
-84.94297028,-121.21144104,0.254760750000059
-84.92881012,-121.19862366,0.254760750000059
-84.93232727,-121.20574188,0.254760750000059
-84.93830872,-121.21112061,0.254882820000148
-84.93470001,-121.20205688,0.254882820000148
-84.92711639,-121.22280884,0.254882820000148
-84.93971252,-121.21414948,0.255004890000009
-84.92852783,-121.20710754,0.255004890000009
-84.93422699,-121.21859741,0.255004890000009
-84.94876099,-121.20613098,0.255126960000098
-84.94309998,-121.21102905,0.255126960000098
-84.94506836,-121.20433807,0.255249030000186
-84.93374634,-121.20025635,0.255371100000048
-84.94367981,-121.20258331,0.255493170000136
-84.93208313,-121.20545959,0.255493170000136
-84.92651367,-121.20752716,0.255493170000136
-84.94338226,-121.2173233,0.255493170000136
-84.93312073,-121.22328949,0.255493170000136
-84.93668365,-121.21955872,0.255615240000225
-84.92534637,-121.22969818,0.255615240000225
-84.93778992,-121.20130157,0.255615240000225
-84.94760132,-121.20301819,0.255981450000036
-84.92880249,-121.19857788,0.255981450000036
-84.93138123,-121.20391846,0.255981450000036
-84.92729187,-121.20654297,0.255981450000036
-84.93845367,-121.18972778,0.256103520000124
-84.93031311,-121.19812012,0.256225590000213
-84.92801666,-121.19930267,0.256225590000213
-84.93260193,-121.21246338,0.256225590000213
-84.92916107,-121.20258331,0.256347660000074
-84.93952179,-121.22293854,0.256347660000074
-84.93939209,-121.22052765,0.256347660000074
-84.93714142,-121.22361755,0.256347660000074
-84.93035126,-121.20462036,0.256469730000163
-84.93348694,-121.20021057,0.256591800000024
-84.9296875,-121.20159149,0.256591800000024
-84.93257141,-121.22119904,0.256713870000112
-84.93383026,-121.2243576,0.256713870000112
-84.93425751,-121.21750641,0.256835940000201
-84.93226624,-121.20693207,0.256835940000201
-84.93772125,-121.19264221,0.256835940000201
-84.94024658,-121.21192169,0.256958010000062
-84.94010925,-121.20417023,0.257080080000151
-84.93737793,-121.22088623,0.257080080000151
-84.92752075,-121.1989975,0.257202150000012
-84.93263245,-121.21118164,0.257202150000012
-84.93055725,-121.18556213,0.257202150000012
-84.92967224,-121.23352051,0.2573242200001
-84.94161987,-121.20371246,0.2573242200001
-84.94384766,-121.21513367,0.2573242200001
-84.93096924,-121.22264099,0.2573242200001
-84.93831635,-121.21128082,0.257446290000189
-84.94586182,-121.2120285,0.25756836000005
-84.94297791,-121.21681976,0.25756836000005
-84.94052124,-121.21939087,0.25756836000005
-84.94873047,-121.20603943,0.257690430000139
-84.94431305,-121.20554352,0.257690430000139
-84.92630005,-121.20570374,0.257690430000139
-84.94171906,-121.20671844,0.2578125
-84.92742157,-121.24852753,0.2578125
-84.9294281,-121.20153809,0.2578125
-84.93200684,-121.20687866,0.2578125
-84.92899323,-121.20754242,0.2578125
-84.94206238,-121.2190094,0.2578125
-84.92881775,-121.20501709,0.257934570000089
-84.94174957,-121.22296143,0.257934570000089
-84.93202972,-121.21665192,0.258056640000177
-84.92919159,-121.20903778,0.258056640000177
-84.94853973,-121.21324921,0.258178710000038
-84.94313049,-121.21874237,0.258300780000127
-84.94013977,-121.20288086,0.258300780000127
-84.93051147,-121.23023224,0.258422850000215
-84.94802856,-121.20638275,0.258422850000215
-84.93676758,-121.1958313,0.258422850000215
-84.93180084,-121.20535278,0.258544920000077
-84.92771912,-121.20796967,0.258544920000077
-84.93158722,-121.2040863,0.258667000000059
-84.93013,-121.21080017,0.258667000000059
-84.9285965,-121.22147369,0.258667000000059
-84.94692993,-121.20484161,0.258789070000148
-84.93276215,-121.22280884,0.258789070000148
-84.93035126,-121.22161102,0.258789070000148
-84.94058228,-121.20960999,0.258789070000148
-84.92034149,-121.21807098,0.258911140000009
-84.94255829,-121.21956635,0.259033210000098
-84.94058228,-121.21916199,0.259033210000098
-84.93920135,-121.20821381,0.259277350000048
-84.9477005,-121.22411346,0.259277350000048
-84.94262695,-121.21843719,0.259277350000048
-84.94602203,-121.22180176,0.259399420000136
-84.94457245,-121.20995331,0.259399420000136
-84.93704224,-121.20762634,0.259521490000225
-84.94841766,-121.20159912,0.259521490000225
-84.94896698,-121.22364044,0.259521490000225
-84.93417358,-121.22116852,0.259521490000225
-84.94225311,-121.20623779,0.259521490000225
-84.92909241,-121.20372772,0.259643560000086
-84.93083954,-121.20352173,0.259887700000036
-84.93550873,-121.22028351,0.259887700000036
-84.92842865,-121.20845032,0.260009770000124
-84.94747162,-121.21169281,0.260009770000124
-84.92771912,-121.22042084,0.260131840000213
-84.93254852,-121.19705963,0.260253910000074
-84.92896271,-121.2074585,0.260253910000074
-84.93283081,-121.22257996,0.260253910000074
-84.9303894,-121.22164154,0.260375980000163
-84.92281342,-121.21602631,0.260375980000163
-84.93170929,-121.21764374,0.260498050000024
-84.93966675,-121.19779205,0.260498050000024
-84.93855286,-121.20266724,0.260620120000112
-84.94358826,-121.20366669,0.260620120000112
-84.94561005,-121.22650146,0.260620120000112
-84.93668365,-121.20069122,0.260620120000112
-84.93937683,-121.20227051,0.260742190000201
-84.93991852,-121.21681213,0.260742190000201
-84.9418869,-121.22563171,0.260742190000201
-84.93972015,-121.21811676,0.260864260000062
-84.93660736,-121.21938324,0.260864260000062
-84.92768097,-121.20813751,0.260986330000151
-84.94676208,-121.20529938,0.261108400000012
-84.93421936,-121.22119904,0.2612304700001
-84.93884277,-121.20896912,0.261352540000189
-84.93907928,-121.22007751,0.261352540000189
-84.93952179,-121.2039032,0.261352540000189
-84.92645264,-121.19957733,0.26147461000005
-84.92523193,-121.2065506,0.26147461000005
-84.94886017,-121.20561218,0.261596680000139
-84.9379425,-121.20018768,0.261596680000139
-84.93393707,-121.20781708,0.261596680000139
-84.9366684,-121.22215271,0.261596680000139
-84.9469986,-121.19822693,0.26171875
-84.93241119,-121.20075989,0.261840820000089
-84.93045807,-121.2071991,0.261840820000089
-84.94281006,-121.19972229,0.261840820000089
-84.93128204,-121.20497131,0.261962890000177
-84.92987061,-121.19416046,0.262084960000038
-84.93064117,-121.21917725,0.262084960000038
-84.94573975,-121.20619202,0.262207030000127
-84.94049072,-121.20348358,0.262451170000077
-84.93354797,-121.1962738,0.262451170000077
-84.93048859,-121.20593262,0.262451170000077
-84.93685913,-121.2199173,0.262451170000077
-84.94164276,-121.20655823,0.262573250000059
-84.94233704,-121.20281219,0.262573250000059
-84.93572235,-121.2143631,0.262573250000059
-84.94818115,-121.20024109,0.262695320000148
-84.93125916,-121.2049408,0.262939460000098
-84.94326019,-121.20082855,0.263061530000186
-84.92991638,-121.20789337,0.263305670000136
-84.93203735,-121.21195984,0.263427740000225
-84.94384003,-121.20258331,0.263549810000086
-84.93595886,-121.21433258,0.263549810000086
-84.93080139,-121.22077179,0.263671880000174
-84.94187164,-121.20149994,0.263671880000174
-84.94405365,-121.21933746,0.263793950000036
-84.94338989,-121.20104218,0.263916020000124
-84.93202972,-121.20417786,0.263916020000124
-84.92909241,-121.20233917,0.263916020000124
-84.94966888,-121.19999695,0.264038090000213
-84.94895172,-121.20697784,0.264038090000213
-84.93093109,-121.21948242,0.264038090000213
-84.94055939,-121.20262909,0.264160160000074
-84.92314148,-121.24661255,0.264160160000074
-84.94158936,-121.21154022,0.264160160000074
-84.9447403,-121.20430756,0.264282230000163
-84.94088745,-121.20069885,0.264404300000024
-84.93708038,-121.20452881,0.264404300000024
-84.93193817,-121.20665741,0.264526370000112
-84.9311676,-121.20738983,0.264526370000112
-84.93556976,-121.20440674,0.264648440000201
-84.94754791,-121.20340729,0.264648440000201
-84.93380737,-121.19521332,0.264648440000201
-84.92961121,-121.20909119,0.264648440000201
-84.93940735,-121.21714783,0.264648440000201
-84.94965363,-121.22399139,0.264770510000062
-84.94161987,-121.21781921,0.264770510000062
-84.93984985,-121.22119904,0.264770510000062
-84.93206787,-121.1884079,0.264770510000062
-84.92857361,-121.19452667,0.264892580000151
-84.93135834,-121.20887756,0.2651367200001
-84.94818115,-121.23069,0.265258790000189
-84.94048309,-121.20922852,0.265258790000189
-84.94735718,-121.20960236,0.265502930000139
-84.93418121,-121.20670319,0.265625
-84.93785095,-121.20439911,0.265869140000177
-84.93121338,-121.21977997,0.265869140000177
-84.93604279,-121.19523621,0.265991210000038
-84.94213867,-121.20018768,0.265991210000038
-84.93949127,-121.20659637,0.265991210000038
-84.94017792,-121.1988678,0.266113280000127
-84.92877197,-121.21909332,0.266113280000127
-84.9363327,-121.21868134,0.266235350000215
-84.93256378,-121.19435883,0.266357420000077
-84.94528198,-121.20207214,0.266479500000059
-84.92639923,-121.19940948,0.266479500000059
-84.94631195,-121.20256042,0.266601570000148
-84.92954254,-121.20275879,0.266601570000148
-84.94042969,-121.20333099,0.266723640000009
-84.93096924,-121.197052,0.266723640000009
-84.94056702,-121.21601868,0.266845710000098
-84.938591,-121.21887207,0.266845710000098
-84.927948,-121.1977005,0.266967780000186
-84.94300079,-121.21970367,0.267089850000048
-84.93060303,-121.22176361,0.267333990000225
-84.93602753,-121.19519043,0.267456060000086
-84.93583679,-121.20894623,0.267456060000086
-84.94213104,-121.2091217,0.267456060000086
-84.93824005,-121.20400238,0.267456060000086
-84.92910767,-121.21893311,0.267578130000174
-84.94766235,-121.22257996,0.267700200000036
-84.94190979,-121.19888306,0.267700200000036
-84.93154144,-121.20253754,0.267700200000036
-84.93813324,-121.21552277,0.267700200000036
-84.94219208,-121.21489716,0.267822270000124
-84.93795776,-121.20378876,0.267944340000213
-84.9446106,-121.20044708,0.267944340000213
-84.93518066,-121.2059021,0.268066410000074
-84.93390656,-121.20635986,0.268066410000074
-84.94303894,-121.20120239,0.268188480000163
-84.93225861,-121.19554138,0.268188480000163
-84.93074799,-121.19573975,0.268188480000163
-84.92971039,-121.21743774,0.268188480000163
-84.9467926,-121.20449829,0.268310550000024
-84.94126892,-121.21859741,0.268310550000024
-84.93502808,-121.19461823,0.268432620000112
-84.93882751,-121.21640015,0.268432620000112
-84.94111633,-121.20056152,0.268554690000201
-84.93773651,-121.21147156,0.268798830000151
-84.93598938,-121.21166229,0.268798830000151
-84.94999695,-121.20359802,0.268920900000012
-84.93831635,-121.20897675,0.268920900000012
-84.9369278,-121.21343231,0.2690429700001
-84.92980957,-121.2014389,0.2690429700001
-84.93859863,-121.21573639,0.269165040000189
-84.93756866,-121.19213104,0.269165040000189
-84.94284821,-121.21347046,0.26928711000005
-84.93109131,-121.21956635,0.26928711000005
-84.93302917,-121.19452667,0.269409180000139
-84.92758942,-121.20010376,0.26953125
-84.94576263,-121.21170044,0.26953125
-84.94065094,-121.2193222,0.26953125
-84.94888306,-121.20478058,0.269653320000089
-84.94641113,-121.22173309,0.269653320000089
-84.93428802,-121.19406128,0.269653320000089
-84.9364624,-121.19663239,0.269775390000177
-84.9357605,-121.21768951,0.269775390000177
-84.93871307,-121.20384979,0.269897460000038
-84.9294281,-121.1973877,0.270019530000127
-84.93900299,-121.21096802,0.270019530000127
-84.92713928,-121.19831848,0.270019530000127
-84.94081116,-121.19734955,0.270263670000077
-84.9375,-121.20532227,0.270507820000148
-84.93167114,-121.19744873,0.270507820000148
-84.9364624,-121.21549225,0.270507820000148
-84.9431076,-121.20899963,0.270629890000009
-84.93023682,-121.20290375,0.270629890000009
-84.94622803,-121.20924377,0.270629890000009
-84.94953156,-121.20178986,0.270751960000098
-84.94535828,-121.21720123,0.270751960000098
-84.93048096,-121.19539642,0.270874030000186
-84.93588257,-121.20632935,0.270874030000186
-84.93424988,-121.21833801,0.270996100000048
-84.92700195,-121.19452667,0.271118170000136
-84.92746735,-121.2234726,0.271240240000225
-84.9341507,-121.19776154,0.271240240000225
-84.93044281,-121.19664001,0.271240240000225
-84.93666077,-121.19554901,0.271240240000225
-84.93914795,-121.21343231,0.271362310000086
-84.93981934,-121.21778107,0.271362310000086
-84.93598938,-121.19506073,0.271484380000174
-84.93537903,-121.21692657,0.271484380000174
-84.94139862,-121.21349335,0.271606450000036
-84.94158936,-121.20542908,0.271972660000074
-84.94548798,-121.20821381,0.271972660000074
-84.94509888,-121.19934082,0.271972660000074
-84.94190979,-121.19747925,0.272094730000163
-84.93995667,-121.21143341,0.272094730000163
-84.93699646,-121.19455719,0.272216800000024
-84.93022156,-121.20310211,0.272216800000024
-84.94029236,-121.21669006,0.272216800000024
-84.94419098,-121.20565033,0.272338870000112
-84.94901276,-121.2019577,0.272338870000112
-84.94297791,-121.21852875,0.272338870000112
-84.93029022,-121.22131348,0.272338870000112
-84.93778992,-121.20860291,0.272460940000201
-84.94432068,-121.21839905,0.272460940000201
-84.94465637,-121.22057343,0.272583010000062
-84.94068146,-121.19667053,0.272583010000062
-84.93589783,-121.1975174,0.272583010000062
-84.93683624,-121.20706177,0.272583010000062
-84.93495178,-121.19573212,0.272705080000151
-84.93765259,-121.19731903,0.272827150000012
-84.94254303,-121.21250153,0.272827150000012
-84.93417358,-121.19644928,0.2729492200001
-84.93241882,-121.19664001,0.2729492200001
-84.93956757,-121.19988251,0.2729492200001
-84.9337616,-121.20957184,0.273071290000189
-84.94071198,-121.19541168,0.273071290000189
-84.93319702,-121.19335175,0.273071290000189
-84.94638062,-121.20516205,0.273315430000139
-84.92861938,-121.19799805,0.2734375
-84.92720795,-121.22257996,0.2734375
-84.93714142,-121.19541168,0.2734375
-84.94953918,-121.20194244,0.273559570000089
-84.94326019,-121.21724701,0.273559570000089
-84.94522858,-121.21698761,0.273925780000127
-84.93769073,-121.21714783,0.273925780000127
-84.93079376,-121.21885681,0.274169920000077
-84.92680359,-121.19966888,0.274292000000059
-84.94190979,-121.21472168,0.274292000000059
-84.93058014,-121.22161102,0.274292000000059
-84.94016266,-121.2090683,0.274292000000059
-84.94584656,-121.1985321,0.274414070000148
-84.93721008,-121.19474792,0.274414070000148
-84.92993927,-121.19525909,0.274414070000148
-84.93019867,-121.20276642,0.274658210000098
-84.92617798,-121.22351837,0.274658210000098
-84.94345093,-121.21871185,0.274780280000186
-84.93997192,-121.21009064,0.274780280000186
-84.93289185,-121.20461273,0.274780280000186
-84.94191742,-121.21798706,0.274780280000186
-84.93544769,-121.21723175,0.274780280000186
-84.94061279,-121.19785309,0.274902350000048
-84.93261719,-121.21826935,0.275024420000136
-84.92945099,-121.19471741,0.275146490000225
-84.93508911,-121.19815063,0.275268560000086
-84.93742371,-121.20513916,0.275390630000174
-84.94734955,-121.19830322,0.275390630000174
-84.94161987,-121.19735718,0.275390630000174
-84.93100739,-121.20076752,0.275390630000174
-84.93875885,-121.19300842,0.275390630000174
-84.93862152,-121.21874237,0.275390630000174
-84.94068909,-121.19532776,0.275512700000036
-84.93414307,-121.19661713,0.275512700000036
-84.93006134,-121.19898987,0.275512700000036
-84.93296051,-121.21193695,0.275634770000124
-84.9436264,-121.19716644,0.275634770000124
-84.93750763,-121.19197845,0.275634770000124
-84.94259644,-121.21044922,0.275756840000213
-84.93614197,-121.19641876,0.275756840000213
-84.9433136,-121.21661377,0.275756840000213
-84.93063354,-121.22162628,0.275878910000074
-84.93267059,-121.19554901,0.276000980000163
-84.94367981,-121.21893311,0.276123050000024
-84.93904114,-121.19950867,0.276123050000024
-84.93920135,-121.19450378,0.276245120000112
-84.94635773,-121.19747925,0.276367190000201
-84.9331131,-121.21907806,0.276489260000062
-84.94094849,-121.20742798,0.276611330000151
-84.94181824,-121.19857788,0.276611330000151
-84.93975067,-121.20410156,0.276733400000012
-84.92488098,-121.22170258,0.276733400000012
-84.94104004,-121.19930267,0.2768554700001
-84.92973328,-121.2011795,0.2768554700001
-84.93855286,-121.20040894,0.2768554700001
-84.93971252,-121.20976257,0.276977540000189
-84.9464035,-121.21923065,0.27734375
-84.9309082,-121.20320892,0.277465820000089
-84.92803955,-121.22019958,0.277709960000038
-84.94947052,-121.21705627,0.277832030000127
-84.93202972,-121.22052002,0.277832030000127
-84.94097137,-121.21215057,0.277832030000127
-84.94265747,-121.20957947,0.277954100000215
-84.92272949,-121.23901367,0.277954100000215
-84.94582367,-121.20635986,0.278076170000077
-84.93302155,-121.19950104,0.278076170000077
-84.94033051,-121.19772339,0.278320320000148
-84.9382019,-121.19390106,0.278442390000009
-84.9433136,-121.19831085,0.278686530000186
-84.9487915,-121.19898987,0.278686530000186
-84.94425201,-121.2000885,0.278686530000186
-84.93723297,-121.20838165,0.278686530000186
-84.94387817,-121.19606781,0.278808600000048
-84.93681335,-121.19809723,0.278808600000048
-84.94658661,-121.22068024,0.278930670000136
-84.94106293,-121.20681,0.279052740000225
-84.94158173,-121.19724274,0.279052740000225
-84.93530273,-121.19828796,0.279052740000225
-84.93550873,-121.19954681,0.279052740000225
-84.94101715,-121.19921875,0.279174810000086
-84.94728088,-121.21443176,0.279418950000036
-84.93575287,-121.20755005,0.279418950000036
-84.94270325,-121.20983887,0.279418950000036
-84.92519379,-121.22200775,0.279541020000124
-84.93187714,-121.20075989,0.279663090000213
-84.9482193,-121.21645355,0.279785160000074
-84.93961334,-121.19615173,0.279785160000074
-84.94055939,-121.19767761,0.279785160000074
-84.9431076,-121.20813751,0.279907230000163
-84.94406891,-121.19730377,0.279907230000163
-84.93382263,-121.20497131,0.280029300000024
-84.94579315,-121.2062912,0.280151370000112
-84.94335175,-121.2120285,0.280151370000112
-84.93231201,-121.20516205,0.280273440000201
-84.9368515,-121.20089722,0.280273440000201
-84.93235016,-121.2175827,0.280639650000012
-84.9479599,-121.21616364,0.2807617200001
-84.93479156,-121.21852112,0.2807617200001
-84.94978333,-121.19844818,0.28100586000005
-84.93743896,-121.20079041,0.281127930000139
-84.93933105,-121.20435333,0.28125
-84.92224884,-121.21430969,0.28125
-84.94087982,-121.20726776,0.281372070000089
-84.94805908,-121.19737244,0.281372070000089
-84.92970276,-121.21964264,0.281372070000089
-84.94271088,-121.20020294,0.281494140000177
-84.92771149,-121.21948242,0.281494140000177
-84.94103241,-121.19814301,0.281616210000038
-84.93772125,-121.19979095,0.281616210000038
-84.94525909,-121.21008301,0.281616210000038
-84.94187927,-121.19490814,0.281738280000127
-84.9358902,-121.21762085,0.281738280000127
-84.94284058,-121.2093811,0.282226570000148
-84.94046021,-121.20011139,0.282226570000148
-84.93963623,-121.20983887,0.282226570000148
-84.93831635,-121.20851898,0.282348640000009
-84.94850159,-121.19886017,0.282470710000098
-84.94065094,-121.19409943,0.282470710000098
-84.94302368,-121.19792175,0.282592780000186
-84.94270325,-121.20015717,0.282714850000048
-84.9348526,-121.21855927,0.282714850000048
-84.93283081,-121.22190857,0.282714850000048
-84.93836975,-121.21027374,0.282958990000225
-84.94391632,-121.20523071,0.282958990000225
-84.94119263,-121.20810699,0.283203130000174
-84.93665314,-121.20921326,0.283203130000174
-84.93186951,-121.1877594,0.283203130000174
-84.94241333,-121.21189117,0.283447270000124
-84.92796326,-121.21701813,0.283447270000124
-84.92942047,-121.21621704,0.283569340000213
-84.94059753,-121.20850372,0.283813480000163
-84.93624115,-121.20838928,0.283813480000163
-84.94851685,-121.19756317,0.283935550000024
-84.94896698,-121.19907379,0.283935550000024
-84.9442215,-121.20826721,0.283935550000024
-84.93711853,-121.21575165,0.284179690000201
-84.94032288,-121.20600891,0.284179690000201
-84.94416046,-121.20867157,0.284301760000062
-84.93421936,-121.2175293,0.284301760000062
-84.94844818,-121.19979095,0.284545900000012
-84.94287872,-121.20159912,0.284790040000189
-84.94696808,-121.19896698,0.28491211000005
-84.93760681,-121.20993042,0.28491211000005
-84.94284821,-121.19358063,0.28491211000005
-84.94915009,-121.21681213,0.285034180000139
-84.94593811,-121.19967651,0.285278320000089
-84.94037628,-121.19374847,0.285278320000089
-84.9406662,-121.20926666,0.285278320000089
-84.94484711,-121.20194244,0.285400390000177
-84.93865967,-121.19268036,0.285400390000177
-84.93858337,-121.20350647,0.285400390000177
-84.9488678,-121.20288849,0.285522460000038
-84.94380951,-121.19584656,0.285522460000038
-84.94109344,-121.21053314,0.285522460000038
-84.94605255,-121.19592285,0.285644530000127
-84.93688202,-121.20913696,0.285644530000127
-84.94351959,-121.19683075,0.285888670000077
-84.93804932,-121.21734619,0.285888670000077
-84.92446899,-121.2177887,0.286132820000148
-84.94815063,-121.20848083,0.286254890000009
-84.94817352,-121.19970703,0.286499030000186
-84.93997955,-121.20928955,0.286621100000048
-84.94760895,-121.20944977,0.286621100000048
-84.94577026,-121.21215057,0.286621100000048
-84.93662262,-121.20909119,0.286621100000048
-84.93821716,-121.22141266,0.286621100000048
-84.94537354,-121.20739746,0.286621100000048
-84.93982697,-121.19467926,0.286743170000136
-84.93836975,-121.20890045,0.286743170000136
-84.93180084,-121.21894836,0.286743170000136
-84.94532013,-121.21061707,0.286865240000225
-84.93704987,-121.20503235,0.286987310000086
-84.94406891,-121.19480896,0.286987310000086
-84.9317627,-121.22019196,0.286987310000086
-84.94788361,-121.20092773,0.287231450000036
-84.9412384,-121.19693756,0.287841800000024
-84.9261322,-121.20021057,0.287841800000024
-84.93228149,-121.21916962,0.287963870000112
-84.92970276,-121.2022934,0.288085940000201
-84.93467712,-121.20471191,0.288208010000062
-84.9315033,-121.21988678,0.288208010000062
-84.94786835,-121.20089722,0.288330080000151
-84.94921112,-121.19792938,0.288452150000012
-84.94918823,-121.20644379,0.288452150000012
-84.94831848,-121.20240021,0.2885742200001
-84.94692993,-121.19885254,0.288696290000189
-84.92658234,-121.2014389,0.28881836000005
-84.92459869,-121.21408081,0.288940430000139
-84.93730164,-121.20387268,0.289184570000089
-84.94338989,-121.22325134,0.289184570000089
-84.94602203,-121.19580078,0.289306640000177
-84.92639923,-121.19891357,0.289550780000127
-84.94924927,-121.20414734,0.289672850000215
-84.94766235,-121.21460724,0.289672850000215
-84.94415283,-121.21499634,0.289672850000215
-84.94290924,-121.19893646,0.289672850000215
-84.93097687,-121.20430756,0.289672850000215
-84.93702698,-121.21074677,0.290039070000148
-84.94777679,-121.20308685,0.290161140000009
-84.92729187,-121.20217133,0.290405280000186
-84.94843292,-121.21360016,0.290771490000225
-84.94867706,-121.22937012,0.290771490000225
-84.94950104,-121.22714233,0.290893560000086
-84.93617249,-121.22145844,0.290893560000086
-84.92404938,-121.20153809,0.291015630000174
-84.94037628,-121.22283173,0.291137700000036
-84.94792175,-121.19830322,0.291259770000124
-84.93009949,-121.19996643,0.291625980000163
-84.94634247,-121.21624756,0.291748050000024
-84.94355774,-121.22467041,0.291748050000024
-84.93901062,-121.21050262,0.291992190000201
-84.93782806,-121.20845795,0.291992190000201
-84.93421936,-121.20384216,0.291992190000201
-84.93092346,-121.20548248,0.291992190000201
-84.93859863,-121.20773315,0.292114260000062
-84.94963837,-121.21431732,0.29272461000005
-84.94637299,-121.21497345,0.29272461000005
-84.9393692,-121.2067337,0.292846680000139
-84.94304657,-121.20909882,0.29296875
-84.92285919,-121.2069397,0.29296875
-84.94947815,-121.2268219,0.293090820000089
-84.93953705,-121.22473907,0.293212890000177
-84.93180847,-121.20070648,0.293334960000038
-84.94738007,-121.21421814,0.293701170000077
-84.94741821,-121.21295929,0.293945320000148
-84.92484283,-121.20697021,0.293945320000148
-84.9365921,-121.20671844,0.293945320000148
-84.92610931,-121.20651245,0.294189460000098
-84.94361115,-121.21456909,0.294433600000048
-84.94217682,-121.21227264,0.294555670000136
-84.94184875,-121.20700073,0.294677740000225
-84.94503784,-121.20884705,0.294799810000086
-84.94830322,-121.21620941,0.295043950000036
-84.93995667,-121.21092987,0.295043950000036
-84.93554688,-121.20828247,0.295166020000124
-84.94670868,-121.22666168,0.295410160000074
-84.93105316,-121.20812988,0.295410160000074
-84.9432373,-121.22579193,0.295532230000163
-84.93280029,-121.20793152,0.295654300000024
-84.94931793,-121.21521759,0.295776370000112
-84.94281006,-121.20748138,0.296142580000151
-84.93520355,-121.20298004,0.296264650000012
-84.94416809,-121.22753906,0.2963867200001
-84.93258667,-121.21414948,0.296508790000189
-84.93369293,-121.21092987,0.296752930000139
-84.9467392,-121.21759796,0.296875
-84.93340302,-121.2121582,0.296997070000089
-84.94332886,-121.21447754,0.297241210000038
-84.94306946,-121.20642853,0.298217780000186
-84.94625854,-121.20826721,0.298461920000136
-84.94406128,-121.21470642,0.298461920000136
-84.94818115,-121.21858215,0.298828130000174
-84.94258118,-121.21389008,0.298950200000036
-84.94001007,-121.21605682,0.298950200000036
-84.94155884,-121.21434784,0.299194340000213
-84.94645691,-121.21750641,0.299316410000074
-84.94248962,-121.216362,0.300048830000151
-84.94045258,-121.21753693,0.300048830000151
