"X","Y","Z"
-84.99346924,-121.41417694,0.0703125
-84.99562836,-121.3609314,0.0704345700000886
-84.96074677,-121.42189026,0.0704345700000886
-84.98439789,-121.35713959,0.0706787100000383
-84.99082947,-121.41597748,0.0706787100000383
-84.95362854,-121.41681671,0.0706787100000383
-84.98777008,-121.41410828,0.0706787100000383
-84.96481323,-121.35379028,0.0708007800001269
-84.98171997,-121.40424347,0.0708007800001269
-84.96099854,-121.3868103,0.0708007800001269
-84.96716309,-121.41713715,0.0708007800001269
-84.96169281,-121.39086914,0.0709228500002155
-84.96491241,-121.41069031,0.0709228500002155
-84.95935059,-121.41577911,0.0709228500002155
-84.98799896,-121.36096954,0.0710449200000767
-84.9642868,-121.36358643,0.0710449200000767
-84.98412323,-121.35681152,0.0711670000000595
-84.96122742,-121.39360046,0.0711670000000595
-84.96199036,-121.40319061,0.0711670000000595
-84.98143005,-121.35495758,0.0712890700001481
-84.97556305,-121.3809967,0.0712890700001481
-84.95179749,-121.40242004,0.0712890700001481
-84.96588898,-121.42407227,0.0714111400000093
-84.95700836,-121.41886139,0.0715332100000978
-84.98725891,-121.35497284,0.0716552800001864
-84.98552704,-121.41031647,0.0716552800001864
-84.96920776,-121.42333221,0.0716552800001864
-84.97157288,-121.35527802,0.0716552800001864
-84.96520233,-121.36924744,0.0717773500000476
-84.96176147,-121.3999176,0.0717773500000476
-84.96019745,-121.39427948,0.0718994200001362
-84.9906311,-121.41574097,0.0718994200001362
-84.9611969,-121.41993713,0.0718994200001362
-84.97279358,-121.39376831,0.0720214900002247
-84.99532318,-121.41686249,0.0720214900002247
-84.95832825,-121.41822052,0.0720214900002247
-84.98985291,-121.35391235,0.0721435600000859
-84.9643631,-121.38609314,0.0721435600000859
-84.9879303,-121.40876007,0.0723877000000357
-84.96150208,-121.39063263,0.0723877000000357
-84.96897888,-121.41015625,0.0723877000000357
-84.97679901,-121.35050964,0.0726318400002128
-84.96357727,-121.40585327,0.0726318400002128
-84.98766327,-121.37772369,0.0726318400002128
-84.97812653,-121.36270142,0.072753910000074
-84.97531128,-121.36506653,0.072753910000074
-84.96762848,-121.36743164,0.072753910000074
-84.96408081,-121.40914917,0.072753910000074
-84.98499298,-121.35514069,0.0728759800001626
-84.96173859,-121.39417267,0.0728759800001626
-84.95123291,-121.41314697,0.0728759800001626
-84.97144318,-121.41249084,0.0729980500000238
-84.95451355,-121.4199295,0.0729980500000238
-84.97640228,-121.39933777,0.0731201200001124
-84.96047211,-121.3945694,0.0731201200001124
-84.96283722,-121.38672638,0.0732421900002009
-84.98726654,-121.35082245,0.0732421900002009
-84.9957428,-121.4174118,0.0732421900002009
-84.9624176,-121.39222717,0.0736084000000119
-84.96838379,-121.42504883,0.0736084000000119
-84.97142029,-121.37095642,0.0737304700001005
-84.98401642,-121.40796661,0.0737304700001005
-84.96679688,-121.41966248,0.0737304700001005
-84.96089172,-121.40627289,0.0739746100000502
-84.96591949,-121.41507721,0.0740966800001388
-84.99093628,-121.37071991,0.07421875
-84.98679352,-121.36894226,0.0743408200000886
-84.96305847,-121.40840912,0.0743408200000886
-84.98760223,-121.42295074,0.0743408200000886
-84.98468018,-121.40628052,0.0744628900001771
-84.97557831,-121.39753723,0.0745849600000383
-84.96296692,-121.4048233,0.0745849600000383
-84.96344757,-121.40837097,0.0745849600000383
-84.95217896,-121.41451263,0.0745849600000383
-84.98602295,-121.4021225,0.0747070300001269
-84.98175812,-121.39878082,0.0747070300001269
-84.96356964,-121.39330292,0.0747070300001269
-84.99938965,-121.42047882,0.0748291000002155
-84.95178223,-121.41648865,0.0748291000002155
-84.97370911,-121.35259247,0.0749511700000767
-84.98021698,-121.36421967,0.0750732500000595
-84.9728775,-121.36575317,0.0750732500000595
-84.96164703,-121.39945984,0.0750732500000595
-84.96263885,-121.42211151,0.0750732500000595
-84.95034027,-121.40284729,0.0750732500000595
-84.97635651,-121.41712952,0.0750732500000595
-84.95465088,-121.41520691,0.0751953200001481
-84.97479248,-121.36636353,0.0753173900000093
-84.98319244,-121.40641785,0.0753173900000093
-84.96710205,-121.41654205,0.0753173900000093
-84.9701767,-121.36628723,0.0755615300001864
-84.95754242,-121.41694641,0.0755615300001864
-84.99333954,-121.37278748,0.0755615300001864
-84.98072815,-121.4059906,0.0758056700001362
-84.98451233,-121.36627197,0.0758056700001362
-84.9835968,-121.35964966,0.0759277400002247
-84.96684265,-121.35392761,0.0760498100000859
-84.98251343,-121.40261841,0.0760498100000859
-84.96276855,-121.3983078,0.0760498100000859
-84.98497009,-121.37838745,0.0760498100000859
-84.98560333,-121.40161133,0.0762939500000357
-84.96369171,-121.40590668,0.0762939500000357
-84.95266724,-121.41532135,0.0762939500000357
-84.9747467,-121.39926147,0.0764160200001243
-84.96414185,-121.40344238,0.0764160200001243
-84.99960327,-121.41636658,0.0765380900002128
-84.97659302,-121.36772156,0.076660160000074
-84.98387909,-121.40775299,0.0767822300001626
-84.97714233,-121.39143372,0.0769043000000238
-84.994133,-121.41483307,0.0770263700001124
-84.96843719,-121.41606903,0.0770263700001124
-84.9900589,-121.36192322,0.0770263700001124
-84.95922852,-121.3973465,0.0770263700001124
-84.99073029,-121.42205811,0.0770263700001124
-84.96890259,-121.36266327,0.0771484400002009
-84.99041748,-121.37075043,0.0771484400002009
-84.95111084,-121.40570831,0.0771484400002009
-84.96703339,-121.36226654,0.0772705100000621
-84.98439026,-121.35411072,0.0772705100000621
-84.9556427,-121.40131378,0.0772705100000621
-84.97222137,-121.3675766,0.0773925800001507
-84.99066925,-121.36106873,0.0773925800001507
-84.96640778,-121.41014862,0.0773925800001507
-84.95603943,-121.41435242,0.0773925800001507
-84.98774719,-121.36869049,0.0773925800001507
-84.99279022,-121.41531372,0.0773925800001507
-84.96073151,-121.35059357,0.0775146500000119
-84.96793365,-121.3921814,0.0775146500000119
-84.95455933,-121.40786743,0.0775146500000119
-84.97989655,-121.40444183,0.0776367200001005
-84.96302795,-121.39884949,0.077758790000189
-84.95004272,-121.4078598,0.077758790000189
-84.96936035,-121.35384369,0.0780029300001388
-84.979599,-121.36627197,0.078125
-84.96408844,-121.38865662,0.078125
-84.97633362,-121.39263153,0.0782470700000886
-84.96369171,-121.39389801,0.0782470700000886
-84.96559906,-121.41674805,0.0782470700000886
-84.96396637,-121.40319824,0.0783691400001771
-84.96144867,-121.42256927,0.0783691400001771
-84.97174835,-121.41841125,0.0783691400001771
-84.9609375,-121.35019684,0.0784912100000383
-84.98996735,-121.35900879,0.0784912100000383
-84.97686005,-121.35433197,0.0784912100000383
-84.98259735,-121.40567017,0.0784912100000383
-84.97258759,-121.39560699,0.0784912100000383
-84.99530029,-121.4164505,0.0784912100000383
-84.96476746,-121.42508698,0.0784912100000383
-84.99468231,-121.35163116,0.0786132800001269
-84.95014954,-121.41641235,0.0786132800001269
-84.98760986,-121.37758636,0.0786132800001269
-84.98375702,-121.35926056,0.0787353500002155
-84.97741699,-121.39172363,0.0787353500002155
-84.96761322,-121.41779327,0.0787353500002155
-84.96755219,-121.40574646,0.0789795000000595
-84.97675323,-121.36734009,0.0791015700001481
-84.96595001,-121.40061188,0.0791015700001481
-84.97296143,-121.37245941,0.0792236400000093
-84.98149872,-121.40709686,0.0793457100000978
-84.96266937,-121.35182953,0.0795898500000476
-84.97016907,-121.39492798,0.0795898500000476
-84.96746826,-121.42632294,0.0795898500000476
-84.96112823,-121.39669037,0.0795898500000476
-84.96838379,-121.36395264,0.0797119200001362
-84.98056793,-121.3967514,0.0797119200001362
-84.96608734,-121.38916016,0.0797119200001362
-84.97882843,-121.3966217,0.0798339900002247
-84.97328949,-121.39694214,0.0799560600000859
-84.99532318,-121.41673279,0.0799560600000859
-84.96459961,-121.42459106,0.0799560600000859
-84.96920013,-121.35077667,0.0800781300001745
-84.96147919,-121.4228363,0.0800781300001745
-84.98580933,-121.36923981,0.0800781300001745
-84.99642181,-121.41712952,0.0800781300001745
-84.97025299,-121.3655777,0.0802002000000357
-84.96877289,-121.42266846,0.0802002000000357
-84.97878265,-121.37664032,0.0802002000000357
-84.97892761,-121.38295746,0.0803222700001243
-84.97122192,-121.37149811,0.0804443400002128
-84.96781158,-121.40628815,0.0804443400002128
-84.95526886,-121.41584015,0.0804443400002128
-84.97457123,-121.36670685,0.080566410000074
-84.96057129,-121.35096741,0.080566410000074
-84.98222351,-121.40492249,0.080566410000074
-84.96665955,-121.40168762,0.080566410000074
-84.96993256,-121.42727661,0.080566410000074
-84.97241974,-121.41797638,0.080566410000074
-84.96544647,-121.39256287,0.0806884800001626
-84.98417664,-121.40232086,0.0808105500000238
-84.96839905,-121.42765808,0.0808105500000238
-84.97998047,-121.40474701,0.0809326200001124
-84.96544647,-121.41413879,0.0809326200001124
-84.98699188,-121.37155151,0.0809326200001124
-84.99108887,-121.415802,0.0809326200001124
-84.99144745,-121.35871887,0.0810546900002009
-84.96618652,-121.39187622,0.0810546900002009
-84.96392059,-121.35131836,0.0812988300001507
-84.9753418,-121.40013123,0.0812988300001507
-84.98223114,-121.4019165,0.0814209000000119
-84.96556854,-121.39359283,0.0815429700001005
-84.96675873,-121.40722656,0.0815429700001005
-84.99996948,-121.41886902,0.0815429700001005
-84.9695816,-121.3936615,0.081665040000189
-84.96199036,-121.42340851,0.081665040000189
-84.97234344,-121.36712646,0.0817871100000502
-84.97878265,-121.35578156,0.0817871100000502
-84.95910645,-121.40921021,0.0817871100000502
-84.97743988,-121.37322235,0.0819091800001388
-84.98195648,-121.35788727,0.0819091800001388
-84.96790314,-121.41208649,0.0819091800001388
-84.97310638,-121.38729858,0.0819091800001388
-84.99339294,-121.35534668,0.08203125
-84.98800659,-121.40840912,0.08203125
-84.96717072,-121.4022522,0.08203125
-84.98174286,-121.36566925,0.0821533200000886
-84.95043945,-121.42043304,0.0821533200000886
-84.99182892,-121.4109726,0.0821533200000886
-84.96843719,-121.35043335,0.0822753900001771
-84.95259094,-121.39221191,0.0822753900001771
-84.99967194,-121.35900879,0.0822753900001771
-84.97693634,-121.38049316,0.0822753900001771
-84.98182678,-121.40415955,0.0823974600000383
-84.99980927,-121.41486359,0.0823974600000383
-84.99401855,-121.41188812,0.0823974600000383
-84.9521637,-121.41136169,0.0823974600000383
-84.97583771,-121.37046051,0.0825195300001269
-84.9780426,-121.35523987,0.0825195300001269
-84.95352936,-121.35494232,0.0825195300001269
-84.96666718,-121.39269257,0.0825195300001269
-84.98420715,-121.36617279,0.0825195300001269
-84.97029114,-121.3572998,0.0826416000002155
-84.98026276,-121.40505219,0.0826416000002155
-84.96565247,-121.4026413,0.0826416000002155
-84.96578979,-121.42648315,0.0826416000002155
-84.99159241,-121.36760712,0.0826416000002155
-84.99485016,-121.35015106,0.0827636700000767
-84.98345184,-121.35916901,0.0827636700000767
-84.96282196,-121.39630127,0.0827636700000767
-84.97428131,-121.3983078,0.0828857500000595
-84.96479034,-121.40408325,0.0828857500000595
-84.98137665,-121.40062714,0.0831298900000093
-84.9837265,-121.38150024,0.0831298900000093
-84.9901886,-121.42201996,0.0831298900000093
-84.98950958,-121.35608673,0.0832519600000978
-84.99134827,-121.37042999,0.0832519600000978
-84.97511292,-121.37750244,0.0832519600000978
-84.96762848,-121.4000473,0.0833740300001864
-84.98961639,-121.41081238,0.0834961000000476
-84.96338654,-121.39019012,0.0836181700001362
-84.99298096,-121.41282654,0.0836181700001362
-84.98071289,-121.36199188,0.0837402400002247
-84.97316742,-121.36382294,0.0837402400002247
-84.97073364,-121.43115234,0.0837402400002247
-84.96276093,-121.39324188,0.0837402400002247
-84.98606873,-121.40827942,0.0838623100000859
-84.99362946,-121.41113281,0.0838623100000859
-84.99456787,-121.42372894,0.0838623100000859
-84.98030853,-121.40180969,0.0839843800001745
-84.96708679,-121.41681671,0.0841064500000357
-84.96186829,-121.42594147,0.0841064500000357
-84.99446869,-121.40367889,0.0842285200001243
-84.99315643,-121.40759277,0.0842285200001243
-84.96784973,-121.39431,0.0842285200001243
-84.97875214,-121.35569763,0.0843505900002128
-84.97499084,-121.39939117,0.0843505900002128
-84.97077179,-121.39555359,0.0843505900002128
-84.96595764,-121.40570068,0.0843505900002128
-84.96420288,-121.40907288,0.0843505900002128
-84.9679184,-121.35009003,0.084472660000074
-84.96903229,-121.40193176,0.084472660000074
-84.9647522,-121.42768097,0.084472660000074
-84.96926117,-121.35360718,0.0845947300001626
-84.97653198,-121.3990097,0.0845947300001626
-84.96469116,-121.35250854,0.0847168000000238
-84.98406219,-121.37505341,0.0847168000000238
-84.95159149,-121.40850067,0.0847168000000238
-84.98692322,-121.41673279,0.0847168000000238
-84.98757935,-121.35209656,0.0848388700001124
-84.96855927,-121.39839172,0.0848388700001124
-84.97846222,-121.42185211,0.0849609400002009
-84.9775238,-121.35488892,0.0850830100000621
-84.96656799,-121.40149689,0.0850830100000621
-84.96646118,-121.4105835,0.0850830100000621
-84.98937988,-121.39852905,0.0852050800001507
-84.96782684,-121.42391968,0.0852050800001507
-84.95346069,-121.39539337,0.0853271500000119
-84.98745728,-121.4071579,0.0853271500000119
-84.98123169,-121.40341187,0.0853271500000119
-84.99475861,-121.41325378,0.0853271500000119
-84.96923828,-121.39644623,0.085571290000189
-84.96199036,-121.35430908,0.0856933600000502
-84.95767212,-121.42003632,0.0856933600000502
-84.98590851,-121.40779114,0.0856933600000502
-84.97193146,-121.40367889,0.0856933600000502
-84.96440125,-121.40058136,0.0856933600000502
-84.96513367,-121.41368103,0.0856933600000502
-84.95472717,-121.41838074,0.0856933600000502
-84.98287964,-121.36147308,0.0858154300001388
-84.98902893,-121.40653992,0.0858154300001388
-84.96790314,-121.42970276,0.0858154300001388
-84.97569275,-121.39746094,0.0859375
-84.97064209,-121.40434265,0.0859375
-84.96569824,-121.42903137,0.0859375
-84.95374298,-121.39412689,0.0860595700000886
-84.95298004,-121.4101181,0.0860595700000886
-84.97183228,-121.41490936,0.0860595700000886
-84.96994781,-121.35085297,0.0861816400001771
-84.97509766,-121.35202026,0.0861816400001771
-84.95436096,-121.35134888,0.0861816400001771
-84.9850235,-121.36923981,0.0861816400001771
-84.95246124,-121.3948288,0.0863037100000383
-84.95027924,-121.40827179,0.0863037100000383
-84.99051666,-121.40364838,0.0863037100000383
-84.95789337,-121.41989136,0.0863037100000383
-84.97940826,-121.41603851,0.0863037100000383
-84.96289063,-121.40097809,0.0864257800001269
-84.98419952,-121.38134003,0.0864257800001269
-84.98490143,-121.38375092,0.0864257800001269
-84.97251129,-121.3656311,0.0865478500002155
-84.97138214,-121.35063171,0.0865478500002155
-84.99004364,-121.39382935,0.0865478500002155
-84.99852753,-121.35588074,0.0866699200000767
-84.97080994,-121.39282227,0.0866699200000767
-84.96421051,-121.39289856,0.0866699200000767
-84.98516083,-121.3889389,0.0867920000000595
-84.9702301,-121.35713959,0.0871582100000978
-84.99858093,-121.35865021,0.0871582100000978
-84.98615265,-121.40532684,0.0871582100000978
-84.99102783,-121.4072113,0.0872802800001864
-84.97907257,-121.39974976,0.0872802800001864
-84.99034119,-121.37332153,0.0872802800001864
-84.98860931,-121.40602112,0.0874023500000476
-84.96762848,-121.40814209,0.0874023500000476
-84.98473358,-121.41732788,0.0874023500000476
-84.98475647,-121.39118195,0.0875244200001362
-84.98419189,-121.40492249,0.0875244200001362
-84.97892761,-121.42169952,0.0875244200001362
-84.97457123,-121.37435913,0.0876464900002247
-84.97203064,-121.37566376,0.0876464900002247
-84.95307159,-121.35201263,0.0876464900002247
-84.95581055,-121.35234833,0.0877685600000859
-84.96933746,-121.39924622,0.0877685600000859
-84.96363831,-121.41108704,0.0877685600000859
-84.95256805,-121.41472626,0.0877685600000859
-84.97531128,-121.39671326,0.0878906300001745
-84.96427155,-121.40637207,0.0878906300001745
-84.95049286,-121.39346313,0.0880127000000357
-84.98400879,-121.40743256,0.0880127000000357
-84.9630127,-121.35809326,0.0881347700001243
-84.98896027,-121.39227295,0.0881347700001243
-84.97131348,-121.39338684,0.0881347700001243
-84.9912796,-121.35529327,0.0882568400002128
-84.99767303,-121.35157013,0.0882568400002128
-84.99008179,-121.3519516,0.088378910000074
-84.96179962,-121.39916229,0.088378910000074
-84.98813629,-121.39972687,0.0885009800001626
-84.97884369,-121.36753082,0.0885009800001626
-84.95986938,-121.3969574,0.0885009800001626
-84.95513153,-121.39659119,0.0886230500000238
-84.99954224,-121.36952972,0.0886230500000238
-84.99394226,-121.36408234,0.0886230500000238
-84.95305634,-121.35198212,0.0887451200001124
-84.98490143,-121.40599823,0.0887451200001124
-84.96672821,-121.40406799,0.0887451200001124
-84.97044373,-121.43045044,0.0887451200001124
-84.97167969,-121.39070892,0.0887451200001124
-84.9954834,-121.35090637,0.0888671900002009
-84.96930695,-121.3967514,0.0888671900002009
-84.95529175,-121.4189682,0.0888671900002009
-84.98165131,-121.38343048,0.0889892600000621
-84.96156311,-121.42549133,0.0891113300001507
-84.96498108,-121.40744781,0.0892334000000119
-84.9693222,-121.43212128,0.0892334000000119
-84.97176361,-121.38153076,0.0892334000000119
-84.969841,-121.41519928,0.0892334000000119
-84.99288177,-121.35800171,0.0893554700001005
-84.99021149,-121.4056778,0.0893554700001005
-84.97966766,-121.37065887,0.0893554700001005
-84.95890045,-121.41921234,0.089477540000189
-84.98600006,-121.40184021,0.089477540000189
-84.9786911,-121.40225983,0.089477540000189
-84.98487854,-121.36141205,0.0895996100000502
-84.974823,-121.37320709,0.0895996100000502
-84.99152374,-121.35220337,0.0895996100000502
-84.98104858,-121.36756897,0.0897216800001388
-84.98036957,-121.38408661,0.0897216800001388
-84.96913147,-121.39299011,0.0897216800001388
-84.97155762,-121.4292984,0.0897216800001388
-84.99617004,-121.36434937,0.08984375
-84.9966507,-121.36205292,0.08984375
-84.97846222,-121.36860657,0.0899658200000886
-84.95957947,-121.36255646,0.0899658200000886
-84.96633911,-121.35450745,0.0900878900001771
-84.9567337,-121.41661835,0.0900878900001771
-84.98903656,-121.3920517,0.0900878900001771
-84.97112274,-121.3934021,0.0900878900001771
-84.99149323,-121.35388947,0.0902099600000383
-84.95336151,-121.39672852,0.0902099600000383
-84.98680878,-121.36525726,0.0903320300001269
-84.96595001,-121.35002899,0.0903320300001269
-84.96224976,-121.353302,0.0904541000002155
-84.99269104,-121.40965271,0.0904541000002155
-84.98462677,-121.39396667,0.0904541000002155
-84.98626709,-121.40512848,0.0904541000002155
-84.95847321,-121.42375946,0.0904541000002155
-84.989151,-121.40686035,0.0905761700000767
-84.978508,-121.39849854,0.0905761700000767
-84.99334717,-121.36280823,0.0906982500000595
-84.96440125,-121.4121933,0.0906982500000595
-84.97889709,-121.42163086,0.0906982500000595
-84.98097229,-121.40572357,0.0908203200001481
-84.97585297,-121.40055847,0.0908203200001481
-84.96939087,-121.42864227,0.0908203200001481
-84.95182037,-121.41596985,0.0908203200001481
-84.95085907,-121.39637756,0.0909423900000093
-84.98027039,-121.39865112,0.0909423900000093
-84.96192169,-121.40547943,0.0909423900000093
-84.96814728,-121.40923309,0.0909423900000093
-84.97119904,-121.39592743,0.0910644600000978
-84.96482086,-121.40695953,0.0910644600000978
-84.9750824,-121.37207031,0.0913086000000476
-84.97268677,-121.37281799,0.0913086000000476
-84.96518707,-121.3927002,0.0913086000000476
-84.99137115,-121.35639191,0.0914306700001362
-84.99150848,-121.39627838,0.0914306700001362
-84.97415161,-121.37133789,0.0916748100000859
-84.97622681,-121.41956329,0.0916748100000859
-84.96523285,-121.41369629,0.0916748100000859
-84.99958038,-121.36380768,0.0917968800001745
-84.97973633,-121.38332367,0.0917968800001745
-84.98757935,-121.39848328,0.0917968800001745
-84.96778107,-121.42075348,0.0917968800001745
-84.97052002,-121.42749023,0.0917968800001745
-84.99633026,-121.35075378,0.0917968800001745
-84.99028778,-121.40572357,0.0920410200001243
-84.9672699,-121.40490723,0.0920410200001243
-84.95738983,-121.42218781,0.0920410200001243
-84.99668884,-121.36238098,0.0920410200001243
-84.99224854,-121.35497284,0.0921630900002128
-84.9887619,-121.40609741,0.0921630900002128
-84.96264648,-121.40631104,0.0921630900002128
-84.9701004,-121.4329834,0.0921630900002128
-84.96534729,-121.41355133,0.0924072300001626
-84.98590851,-121.37146759,0.0924072300001626
-84.99675751,-121.36486053,0.0925293000000238
-84.97811127,-121.39800262,0.0925293000000238
-84.97769928,-121.40322876,0.0925293000000238
-84.96720123,-121.39312744,0.0925293000000238
-84.96190643,-121.40538788,0.0925293000000238
-84.99604797,-121.40292358,0.0926513700001124
-84.96791077,-121.39694977,0.0926513700001124
-84.96420288,-121.40592957,0.0926513700001124
-84.97080231,-121.39541626,0.0927734400002009
-84.98719025,-121.3615799,0.0928955100000621
-84.97566986,-121.39730835,0.0928955100000621
-84.96031952,-121.42669678,0.0928955100000621
-84.96903229,-121.36022949,0.0930175800001507
-84.96192932,-121.35428619,0.0930175800001507
-84.97187042,-121.42987061,0.0930175800001507
-84.99208832,-121.42703247,0.0930175800001507
-84.98928833,-121.35449219,0.0931396500000119
-84.97875214,-121.39328766,0.0931396500000119
-84.97753143,-121.37689972,0.0931396500000119
-84.99851227,-121.36199951,0.0932617200001005
-84.98091125,-121.3849411,0.0932617200001005
-84.95832062,-121.4093399,0.0932617200001005
-84.99630737,-121.3613205,0.093383790000189
-84.96952057,-121.40560913,0.093383790000189
-84.9828186,-121.36884308,0.0935058600000502
-84.96177673,-121.36222076,0.0935058600000502
-84.96878815,-121.39578247,0.0936279300001388
-84.97238922,-121.43318176,0.0936279300001388
-84.98406219,-121.39296722,0.09375
-84.96829987,-121.4180603,0.09375
-84.98403168,-121.38694763,0.0938720700000886
-84.97376251,-121.39968109,0.0938720700000886
-84.96658325,-121.43047333,0.0938720700000886
-84.98625183,-121.37747955,0.0938720700000886
-84.98529816,-121.35987854,0.0939941400001771
-84.97879028,-121.37528229,0.0939941400001771
-84.99449921,-121.40081024,0.0939941400001771
-84.9781723,-121.40428925,0.0939941400001771
-84.9651413,-121.41053772,0.0939941400001771
-84.95636749,-121.42314911,0.0939941400001771
-84.9641571,-121.39553833,0.0939941400001771
-84.96354675,-121.40515137,0.0941162100000383
-84.97187042,-121.38549042,0.0942382800001269
-84.9664917,-121.40614319,0.0942382800001269
-84.9601593,-121.42295074,0.0942382800001269
-84.97138214,-121.42369843,0.0942382800001269
-84.96955109,-121.40236664,0.0944824200000767
-84.95211792,-121.41056061,0.0946045000000595
-84.96943665,-121.42317963,0.0946045000000595
-84.96199036,-121.35344696,0.0947265700001481
-84.99871826,-121.39839935,0.0947265700001481
-84.98236084,-121.39585876,0.0947265700001481
-84.97392273,-121.36782837,0.0948486400000093
-84.98005676,-121.38363647,0.0949707100000978
-84.97371674,-121.3941803,0.0949707100000978
-84.96955872,-121.40563965,0.0949707100000978
-84.9718399,-121.41184235,0.0949707100000978
-84.97104645,-121.42832947,0.0949707100000978
-84.95771027,-121.42250824,0.0949707100000978
-84.97283173,-121.38960266,0.0950927800001864
-84.95352936,-121.42144012,0.0950927800001864
-84.96703339,-121.42218781,0.0950927800001864
-84.99633026,-121.35858917,0.0952148500000476
-84.99967957,-121.40876007,0.0952148500000476
-84.97087097,-121.39871979,0.0952148500000476
-84.97106934,-121.43134308,0.0952148500000476
-84.96253967,-121.41436768,0.0952148500000476
-84.98164368,-121.38928986,0.0953369200001362
-84.98145294,-121.39177704,0.0953369200001362
-84.97501373,-121.38751221,0.0953369200001362
-84.99813843,-121.36203003,0.0953369200001362
-84.95378113,-121.41309357,0.0954589900002247
-84.96858978,-121.41835785,0.0954589900002247
-84.96331787,-121.42797852,0.0954589900002247
-84.98879242,-121.37062073,0.0954589900002247
-84.99745178,-121.39253998,0.0955810600000859
-84.98409271,-121.38697815,0.0955810600000859
-84.96257019,-121.36734009,0.0957031300001745
-84.97489166,-121.3811264,0.0958252000000357
-84.99957275,-121.3739624,0.0958252000000357
-84.96164703,-121.40815735,0.0958252000000357
-84.96189117,-121.36158752,0.0959472700001243
-84.97398376,-121.39772034,0.0959472700001243
-84.96420288,-121.42655182,0.0959472700001243
-84.9834671,-121.38868713,0.0960693400002128
-84.96025848,-121.39990997,0.0960693400002128
-84.97171783,-121.42664337,0.0960693400002128
-84.97377014,-121.43257141,0.0960693400002128
-84.95555115,-121.42160797,0.0960693400002128
-84.96273804,-121.40036011,0.096191410000074
-84.97029114,-121.36392212,0.0964355500000238
-84.99967194,-121.39974976,0.0964355500000238
-84.96881104,-121.38052368,0.0964355500000238
-84.97827148,-121.37657166,0.0965576200001124
-84.99951172,-121.3633728,0.0965576200001124
-84.98790741,-121.39305878,0.0965576200001124
-84.97106934,-121.42233276,0.0965576200001124
-84.99926758,-121.35684204,0.0966796900002009
-84.97180939,-121.40007019,0.0966796900002009
-84.96739197,-121.40524292,0.0968017600000621
-84.95664978,-121.42070007,0.0968017600000621
-84.95069122,-121.41671753,0.0968017600000621
-84.96398163,-121.3618927,0.0970459000000119
-84.95874023,-121.41369629,0.0970459000000119
-84.96797943,-121.38497925,0.0970459000000119
-84.97306061,-121.37220764,0.0970459000000119
-84.98712158,-121.36141968,0.0971679700001005
-84.96684265,-121.38037872,0.0971679700001005
-84.97395325,-121.38569641,0.0971679700001005
-84.96746826,-121.41403198,0.0971679700001005
-84.9728775,-121.42825317,0.0971679700001005
-84.97640991,-121.38639832,0.097290040000189
-84.97116089,-121.39576721,0.097290040000189
-84.96431732,-121.40625763,0.097290040000189
-84.98361969,-121.36546326,0.0974121100000502
-84.99172211,-121.3991394,0.0974121100000502
-84.97210693,-121.40612793,0.0974121100000502
-84.96555328,-121.42520142,0.0974121100000502
-84.95702362,-121.42063904,0.0975341800001388
-84.97947693,-121.38564301,0.0975341800001388
-84.97862244,-121.38707733,0.0975341800001388
-84.96363831,-121.39555359,0.0975341800001388
-84.96733093,-121.35835266,0.09765625
-84.9817276,-121.38581848,0.09765625
-84.96434784,-121.40276337,0.09765625
-84.97422028,-121.42736053,0.09765625
-84.96494293,-121.42739105,0.09765625
-84.95469666,-121.42031097,0.09765625
-84.96227264,-121.41156006,0.09765625
-84.96843719,-121.42160797,0.09765625
-84.95802307,-121.41957092,0.0977783200000886
-84.97988129,-121.37081909,0.0979003900001771
-84.97368622,-121.37670135,0.0979003900001771
-84.96874237,-121.39808655,0.0979003900001771
-84.95823669,-121.41339874,0.0980224600000383
-84.96753693,-121.37818909,0.0980224600000383
-84.95688629,-121.40033722,0.0980224600000383
-84.99137115,-121.35360718,0.0981445300001269
-84.99816132,-121.3973999,0.0982666000002155
-84.97602844,-121.43328094,0.0982666000002155
-84.96842194,-121.41513062,0.0982666000002155
-84.97577667,-121.36833191,0.0983886700000767
-84.97485352,-121.38104248,0.0983886700000767
-84.96923828,-121.40792084,0.0983886700000767
-84.9521637,-121.40502167,0.0983886700000767
-84.96179962,-121.36125946,0.0985107500000595
-84.96917725,-121.42797852,0.0985107500000595
-84.95140839,-121.41780853,0.0985107500000595
-84.96713257,-121.38368225,0.0986328200001481
-84.9672699,-121.41078186,0.0986328200001481
-84.99510956,-121.40444183,0.0987548900000093
-84.96916962,-121.4315033,0.0987548900000093
-84.9535675,-121.41596985,0.0987548900000093
-84.96671295,-121.38591003,0.0988769600000978
-84.97257996,-121.40393066,0.0988769600000978
-84.97123718,-121.4050827,0.0988769600000978
-84.9691925,-121.39588928,0.0988769600000978
-84.97451782,-121.43367004,0.0988769600000978
-84.98957062,-121.42176056,0.0988769600000978
-84.95500183,-121.42053223,0.0989990300001864
-84.96661377,-121.40647125,0.0989990300001864
-84.97371674,-121.41178894,0.0989990300001864
-84.97019958,-121.37992096,0.0991211000000476
-84.97605896,-121.43003845,0.0991211000000476
-84.97911072,-121.37332916,0.0991211000000476
-84.95941162,-121.42170715,0.0992431700001362
-84.98265839,-121.38742065,0.0993652400002247
-84.99102783,-121.3759613,0.0993652400002247
-84.97612,-121.37613678,0.0994873100000859
-84.95281219,-121.40292358,0.0996093800001745
-84.95097351,-121.41428375,0.0996093800001745
-84.97463226,-121.37802124,0.0997314500000357
-84.9702301,-121.41829681,0.0997314500000357
-84.97666931,-121.36528015,0.0998535200001243
-84.97309875,-121.37840271,0.0998535200001243
-84.97808075,-121.41876984,0.0998535200001243
-84.97145844,-121.43144226,0.0999755900002128
-84.97328186,-121.40825653,0.100097660000074
-84.96977997,-121.41451263,0.100097660000074
-84.9681778,-121.40611267,0.100219730000163
-84.96903229,-121.4337616,0.100219730000163
-84.99926758,-121.35865021,0.100219730000163
-84.98995972,-121.43080902,0.100219730000163
-84.962883,-121.36531067,0.100341800000024
-84.96190643,-121.4254303,0.100341800000024
-84.99472046,-121.40368652,0.100463870000112
-84.95407867,-121.41654205,0.100463870000112
-84.98223114,-121.36997223,0.100585940000201
-84.96517944,-121.37728882,0.100585940000201
-84.97086334,-121.37278748,0.100585940000201
-84.98581696,-121.39246368,0.100708010000062
-84.96948242,-121.39945221,0.100830080000151
-84.95211029,-121.4161377,0.100830080000151
-84.95307922,-121.40454102,0.100952150000012
-84.98544312,-121.36698914,0.1010742200001
-84.97142029,-121.4196701,0.101196290000189
-84.96897125,-121.3675766,0.10131836000005
-84.95126343,-121.41757965,0.10131836000005
-84.9961319,-121.37471771,0.10131836000005
-84.95970154,-121.36106873,0.101440430000139
-84.98777008,-121.35855865,0.1015625
-84.97441864,-121.40711975,0.1015625
-84.97090912,-121.41036224,0.1015625
-84.97080994,-121.40557098,0.1015625
-84.96952057,-121.43457794,0.101684570000089
-84.97756958,-121.37830353,0.101806640000177
-84.96356964,-121.36254883,0.101806640000177
-84.97309875,-121.40802002,0.101806640000177
-84.97016144,-121.43286896,0.101928710000038
-84.95462036,-121.41986084,0.101928710000038
-84.95675659,-121.40663147,0.101928710000038
-84.95826721,-121.42720032,0.101928710000038
-84.97682953,-121.36489868,0.102050780000127
-84.96083832,-121.36412811,0.102050780000127
-84.97289276,-121.38381958,0.102050780000127
-84.9724884,-121.41745758,0.102050780000127
-84.95568085,-121.41919708,0.102172850000215
-84.97662354,-121.43063354,0.102294920000077
-84.98461151,-121.4197998,0.102294920000077
-84.9657135,-121.38413239,0.102417000000059
-84.97210693,-121.42098999,0.102417000000059
-84.96701813,-121.35951233,0.102539070000148
-84.95365143,-121.42237091,0.102539070000148
-84.99286652,-121.37223816,0.102539070000148
-84.97345734,-121.36839294,0.102661140000009
-84.95966339,-121.35234833,0.102661140000009
-84.99809265,-121.39997101,0.102661140000009
-84.96853638,-121.37683105,0.102661140000009
-84.98387909,-121.38932037,0.102783210000098
-84.99111938,-121.43028259,0.102783210000098
-84.95523834,-121.41940308,0.102905280000186
-84.98032379,-121.4241333,0.103027350000048
-84.9744873,-121.38195038,0.103149420000136
-84.96961212,-121.40827179,0.103149420000136
-84.95906067,-121.42449951,0.103149420000136
-84.96839142,-121.38861084,0.103271490000225
-84.96105194,-121.41751099,0.103271490000225
-84.99080658,-121.40041351,0.103393560000086
-84.97026062,-121.43540955,0.103393560000086
-84.95764923,-121.42221069,0.103515630000174
-84.97471619,-121.41043091,0.103515630000174
-84.97267914,-121.43660736,0.103637700000036
-84.95510864,-121.42067719,0.103637700000036
-84.95249176,-121.42223358,0.103881840000213
-84.97203064,-121.37503815,0.103881840000213
-84.97373962,-121.42314911,0.104003910000074
-84.96785736,-121.3562088,0.104125980000163
-84.95954895,-121.41217041,0.104125980000163
-84.97251892,-121.41001892,0.104248050000024
-84.95584869,-121.424263,0.104248050000024
-84.95307159,-121.41652679,0.104370120000112
-84.97058868,-121.37702179,0.104370120000112
-84.97046661,-121.39456177,0.104370120000112
-84.9723587,-121.41854095,0.104370120000112
-84.97532654,-121.37866211,0.104492190000201
-84.95266724,-121.40550995,0.104492190000201
-84.97254181,-121.41303253,0.104492190000201
-84.97244263,-121.42405701,0.104492190000201
-84.97064972,-121.42768097,0.104492190000201
-84.96002197,-121.42559814,0.104614260000062
-84.97106934,-121.42546082,0.104614260000062
-84.97041321,-121.37098694,0.104736330000151
-84.9801178,-121.37713623,0.104858400000012
-84.99633789,-121.39434814,0.104858400000012
-84.99265289,-121.4030838,0.104858400000012
-84.97348785,-121.41712952,0.104858400000012
-84.96517181,-121.4305191,0.104858400000012
-84.98510742,-121.36878967,0.104858400000012
-84.98628998,-121.36385345,0.1049804700001
-84.97608948,-121.3835907,0.1049804700001
-84.95979309,-121.36781311,0.1049804700001
-84.971138,-121.3991394,0.1049804700001
-84.96938324,-121.43435669,0.1049804700001
-84.96798706,-121.36303711,0.105102540000189
-84.99461365,-121.39421082,0.105102540000189
-84.97026062,-121.43292999,0.10522461000005
-84.95829773,-121.42546844,0.10522461000005
-84.96233368,-121.39280701,0.10522461000005
-84.97368622,-121.37626648,0.105346680000139
-84.97297668,-121.40455627,0.105346680000139
-84.97646332,-121.3742981,0.10546875
-84.97640228,-121.41861725,0.10546875
-84.95184326,-121.42144775,0.10546875
-84.95986938,-121.35959625,0.105590820000089
-84.95127869,-121.42494202,0.105590820000089
-84.97592926,-121.41506958,0.105590820000089
-84.98735046,-121.42505646,0.105590820000089
-84.97833252,-121.37595367,0.105712890000177
-84.95496368,-121.41929626,0.105712890000177
-84.96533203,-121.38063049,0.105712890000177
-84.97577667,-121.4265976,0.105712890000177
-84.97509766,-121.42253113,0.105712890000177
-84.95188904,-121.42421722,0.105712890000177
-84.97118378,-121.39563751,0.105834960000038
-84.97044373,-121.42443085,0.105834960000038
-84.99536133,-121.40733337,0.105957030000127
-84.96775818,-121.37857056,0.105957030000127
-84.97576141,-121.420578,0.105957030000127
-84.98436737,-121.37448883,0.105957030000127
-84.96346283,-121.36215973,0.106079100000215
-84.96877289,-121.38498688,0.106079100000215
-84.97096252,-121.39237213,0.106323250000059
-84.97299957,-121.40155792,0.106445320000148
-84.95871735,-121.42375946,0.106445320000148
-84.95345306,-121.42059326,0.106445320000148
-84.96859741,-121.36847687,0.106567390000009
-84.96951294,-121.37245178,0.106567390000009
-84.99983978,-121.41445923,0.106689460000098
-84.97460938,-121.40997314,0.106689460000098
-84.96897125,-121.35919952,0.106811530000186
-84.99510193,-121.39502716,0.106811530000186
-84.96853638,-121.43306732,0.106811530000186
-84.95340729,-121.4127121,0.106933600000048
-84.99933624,-121.39537048,0.106933600000048
-84.95304108,-121.41966248,0.106933600000048
-84.99240875,-121.38780212,0.107055670000136
-84.98668671,-121.3621521,0.107177740000225
-84.95570374,-121.41152191,0.107177740000225
-84.97257996,-121.40405273,0.107177740000225
-84.99678802,-121.35640717,0.107177740000225
-84.98603058,-121.36830902,0.107177740000225
-84.96742249,-121.37631989,0.107177740000225
-84.9719162,-121.39646912,0.107299810000086
-84.95101929,-121.41990662,0.107299810000086
-84.96694946,-121.38304138,0.107421880000174
-84.96955872,-121.37436676,0.107543950000036
-84.95629883,-121.41603088,0.107543950000036
-84.95681763,-121.42305756,0.107543950000036
-84.9730835,-121.41060638,0.107543950000036
-84.97492218,-121.42228699,0.107543950000036
-84.97093201,-121.42523956,0.107543950000036
-84.96289825,-121.42900848,0.107543950000036
-84.96425629,-121.37580872,0.107666020000124
-84.97688293,-121.38131714,0.107666020000124
-84.97473145,-121.42478943,0.107666020000124
-84.96060181,-121.35706329,0.107788090000213
-84.9729538,-121.42514801,0.107788090000213
-84.97075653,-121.42749023,0.107788090000213
-84.96977234,-121.40561676,0.107788090000213
-84.95465088,-121.41323853,0.107788090000213
-84.98838806,-121.35562897,0.107910160000074
-84.95114136,-121.35028839,0.107910160000074
-84.95303345,-121.42008209,0.107910160000074
-84.96005249,-121.39012146,0.107910160000074
-84.95188904,-121.41548157,0.108032230000163
-84.98673248,-121.41902161,0.108032230000163
-84.97370148,-121.4029007,0.108154300000024
-84.97962952,-121.38191986,0.108154300000024
-84.95588684,-121.42075348,0.108276370000112
-84.96977234,-121.37299347,0.108276370000112
-84.99050903,-121.37609863,0.108276370000112
-84.96546173,-121.39190674,0.108276370000112
-84.99738312,-121.42848969,0.108276370000112
-84.9759903,-121.41536713,0.108398440000201
-84.96437073,-121.42925262,0.108398440000201
-84.95542908,-121.41851807,0.108398440000201
-84.95558929,-121.42223358,0.108520510000062
-84.95540619,-121.427742,0.108520510000062
-84.95291138,-121.42835236,0.108520510000062
-84.9813385,-121.37213898,0.108642580000151
-84.9712677,-121.3752594,0.108642580000151
-84.97284698,-121.40434265,0.108642580000151
-84.97653961,-121.42771149,0.108642580000151
-84.95237732,-121.42228699,0.108642580000151
-84.97306824,-121.39833832,0.108764650000012
-84.97580719,-121.41786957,0.108764650000012
-84.97277069,-121.42790985,0.108764650000012
-84.95928192,-121.41770172,0.108764650000012
-84.98117065,-121.38794708,0.1088867200001
-84.99340057,-121.39517975,0.1088867200001
-84.96676636,-121.38279724,0.1088867200001
-84.99447632,-121.36595154,0.1088867200001
-84.96587372,-121.3782196,0.109008790000189
-84.97077179,-121.36920929,0.10913086000005
-84.97528839,-121.39901733,0.10913086000005
-84.97763824,-121.42353821,0.10913086000005
-84.96645355,-121.39730072,0.10913086000005
-84.97979736,-121.36962891,0.109252930000139
-84.96186829,-121.35954285,0.109375
-84.95812225,-121.40315247,0.109375
-84.97168732,-121.42282104,0.109619140000177
-84.96858215,-121.4240799,0.109619140000177
-84.97263336,-121.43318176,0.109619140000177
-84.97872925,-121.41841888,0.109619140000177
-84.97086334,-121.42672729,0.109741210000038
-84.98874664,-121.35497284,0.109863280000127
-84.96853638,-121.36096191,0.109863280000127
-84.96782684,-121.37106323,0.109863280000127
-84.98738098,-121.3826828,0.109863280000127
-84.98519897,-121.39454651,0.109863280000127
-84.9647522,-121.37362671,0.109863280000127
-84.97545624,-121.36846161,0.109985350000215
-84.95081329,-121.40702057,0.109985350000215
-84.96472168,-121.3708725,0.109985350000215
-84.96974945,-121.40277863,0.109985350000215
-84.97714996,-121.37168121,0.110107420000077
-84.95291901,-121.42562103,0.110107420000077
-84.96690369,-121.35923767,0.110229500000059
-84.95761871,-121.35041809,0.110229500000059
-84.95684814,-121.41345978,0.110229500000059
-84.96917725,-121.37171936,0.110229500000059
-84.97068787,-121.40368652,0.110229500000059
-84.97904205,-121.4316864,0.110229500000059
-84.99893951,-121.42459869,0.110229500000059
-84.97186279,-121.37328339,0.110351570000148
-84.95287323,-121.35001373,0.110351570000148
-84.96858978,-121.38246155,0.110351570000148
-84.96907806,-121.39553833,0.110351570000148
-84.97505951,-121.42812347,0.110351570000148
-84.99752045,-121.36179352,0.110351570000148
-84.99855042,-121.43077087,0.110351570000148
-84.99327087,-121.40698242,0.110473640000009
-84.97766113,-121.42054749,0.110473640000009
-84.97292328,-121.4106369,0.110473640000009
-84.97837067,-121.42436981,0.110595710000098
-84.98011017,-121.38178253,0.110595710000098
-84.9691925,-121.43006897,0.110595710000098
-84.96964264,-121.36504364,0.110717780000186
-84.96040344,-121.42321014,0.110717780000186
-84.99078369,-121.38773346,0.110839850000048
-84.9697876,-121.39936829,0.110839850000048
-84.97023773,-121.40545654,0.110839850000048
-84.9552002,-121.39144897,0.110839850000048
-84.9620285,-121.35179138,0.110961920000136
-84.97331238,-121.39614105,0.110961920000136
-84.95101929,-121.41168976,0.110961920000136
-84.96343231,-121.36222076,0.111083990000225
-84.98068237,-121.37397003,0.111206060000086
-84.9627533,-121.35648346,0.111328130000174
-84.95800781,-121.35340118,0.111328130000174
-84.95494843,-121.41786957,0.111450200000036
-84.96217346,-121.41684723,0.111450200000036
-84.99836731,-121.40638733,0.111572270000124
-84.97210693,-121.37648773,0.111572270000124
-84.96616364,-121.3755188,0.111572270000124
-84.96208954,-121.3666687,0.111572270000124
-84.96862793,-121.38247681,0.111572270000124
-84.97796631,-121.42987061,0.111572270000124
-84.99134827,-121.35282898,0.111694340000213
-84.97860718,-121.36646271,0.111694340000213
-84.97975922,-121.42951202,0.111694340000213
-84.97022247,-121.43276978,0.111694340000213
-84.95224762,-121.40801239,0.111816410000074
-84.96781158,-121.43157959,0.111816410000074
-84.96911621,-121.39556885,0.111938480000163
-84.96111298,-121.42427826,0.111938480000163
-84.98729706,-121.42491913,0.111938480000163
-84.9699707,-121.37284088,0.112060550000024
-84.95501709,-121.3527832,0.112060550000024
-84.99259186,-121.39064026,0.112060550000024
-84.96894836,-121.40106964,0.112060550000024
-84.97444916,-121.43335724,0.112060550000024
-84.96691895,-121.3971405,0.112060550000024
-84.97377014,-121.42604065,0.112182620000112
-84.95127106,-121.41223145,0.112182620000112
-84.95010376,-121.42717743,0.112182620000112
-84.96389008,-121.36631775,0.112304690000201
-84.97637939,-121.41847229,0.112304690000201
-84.99778748,-121.41087341,0.112304690000201
-84.97196198,-121.37484741,0.112426760000062
-84.9912796,-121.43002319,0.112548830000151
-84.99276733,-121.35478973,0.112670900000012
-84.96724701,-121.36469269,0.112670900000012
-84.95343018,-121.41001892,0.112670900000012
-84.97032166,-121.40621185,0.112670900000012
-84.97028351,-121.39391327,0.112670900000012
-84.99105072,-121.36675262,0.112670900000012
-84.95146942,-121.40869904,0.1127929700001
-84.95735168,-121.41264343,0.1127929700001
-84.9743576,-121.38018799,0.1127929700001
-84.96956635,-121.38382721,0.1127929700001
-84.9865799,-121.3844223,0.1127929700001
-84.95937347,-121.42440796,0.112915040000189
-84.99395752,-121.36873627,0.112915040000189
-84.95905304,-121.35137939,0.11303711000005
-84.96642303,-121.37606049,0.11303711000005
-84.99617767,-121.39646149,0.11303711000005
-84.97045898,-121.40257263,0.11303711000005
-84.96614838,-121.37303162,0.113159180000139
-84.97112274,-121.38973236,0.113159180000139
-84.971138,-121.39273834,0.113159180000139
-84.97669983,-121.42752838,0.113159180000139
-84.96630859,-121.43197632,0.113159180000139
-84.96941376,-121.365242,0.11328125
-84.9743576,-121.37187958,0.11328125
-84.95578003,-121.42234039,0.11328125
-84.98374939,-121.39196777,0.11328125
-84.97844696,-121.42767334,0.11328125
-84.95768738,-121.39678192,0.11328125
-84.95101166,-121.41429138,0.11328125
-84.96572876,-121.36898804,0.113403320000089
-84.97798157,-121.42086792,0.113403320000089
-84.95423126,-121.42378235,0.113525390000177
-84.99265289,-121.39367676,0.113525390000177
-84.96560669,-121.36295319,0.113647460000038
-84.97583008,-121.42922974,0.113647460000038
-84.95178223,-121.42218781,0.113769530000127
-84.96967316,-121.40216064,0.113769530000127
-84.97270966,-121.4274826,0.113769530000127
-84.97498322,-121.43367767,0.113769530000127
-84.95181274,-121.41555023,0.113769530000127
-84.97254181,-121.3808136,0.113769530000127
-84.98345947,-121.36408997,0.113891600000215
-84.96877289,-121.39758301,0.113891600000215
-84.97914124,-121.4254837,0.113891600000215
-84.97972107,-121.36946106,0.114013670000077
-84.96391296,-121.40705872,0.114013670000077
-84.97382355,-121.41667938,0.114135750000059
-84.95465088,-121.4161377,0.114135750000059
-84.9662323,-121.37580872,0.114257820000148
-84.97238159,-121.40940094,0.114257820000148
-84.9662323,-121.41552734,0.114257820000148
-84.97299957,-121.36904907,0.114379890000009
-84.96266937,-121.36480713,0.114379890000009
-84.99938202,-121.4042511,0.114379890000009
-84.97344208,-121.43431854,0.114379890000009
-84.96074677,-121.42655182,0.114379890000009
-84.9667511,-121.40042877,0.114379890000009
-84.97766113,-121.36936188,0.114501960000098
-84.96050262,-121.35681915,0.114501960000098
-84.9593277,-121.35246277,0.114624030000186
-84.97148895,-121.4369278,0.114624030000186
-84.9540329,-121.3948822,0.114746100000048
-84.99391937,-121.42922974,0.114746100000048
-84.97844696,-121.42115021,0.114746100000048
-84.99874115,-121.35653687,0.114868170000136
-84.97145081,-121.43441772,0.114868170000136
-84.96634674,-121.36044312,0.114990240000225
-84.9678421,-121.36267853,0.115112310000086
-84.98715973,-121.39402008,0.115112310000086
-84.96843719,-121.37023163,0.115112310000086
-84.97692871,-121.42532349,0.115112310000086
-84.97689819,-121.41929626,0.115234380000174
-84.97406006,-121.42359161,0.115234380000174
-84.98269653,-121.42900085,0.115234380000174
-84.9577179,-121.42357635,0.115356450000036
-84.97897339,-121.42498016,0.115356450000036
-84.97531891,-121.41390991,0.115356450000036
-84.95600891,-121.3519516,0.115478520000124
-84.96971893,-121.40219116,0.115478520000124
-84.95275879,-121.41690826,0.115478520000124
-84.99974823,-121.36711121,0.115478520000124
-84.96070099,-121.41616058,0.115600590000213
-84.96836853,-121.39707184,0.115600590000213
-84.97485352,-121.37065887,0.115722660000074
-84.97409058,-121.42661285,0.115722660000074
-84.9720993,-121.42646027,0.115722660000074
-84.97080994,-121.36843109,0.115844730000163
-84.95620728,-121.42376709,0.115844730000163
-84.97218323,-121.43824768,0.115844730000163
-84.96337891,-121.38906097,0.115844730000163
-84.97928619,-121.42707062,0.115844730000163
-84.97438812,-121.4389267,0.115966800000024
-84.9598999,-121.42524719,0.115966800000024
-84.95282745,-121.38287354,0.115966800000024
-84.96845245,-121.36814117,0.116088870000112
-84.96034241,-121.36470795,0.116088870000112
-84.95188904,-121.41011047,0.116088870000112
-84.95517731,-121.42447662,0.116088870000112
-84.95195007,-121.42386627,0.116333010000062
-84.96981049,-121.37261963,0.116455080000151
-84.97911072,-121.37152863,0.116577150000012
-84.97425079,-121.37673187,0.116577150000012
-84.95674133,-121.39993286,0.116577150000012
-84.98259735,-121.36620331,0.1166992200001
-84.97830963,-121.42118835,0.1166992200001
-84.96613312,-121.3915863,0.1166992200001
-84.96838379,-121.36045837,0.116821290000189
-84.95140839,-121.42482758,0.116821290000189
-84.97267151,-121.40670013,0.116821290000189
-84.95461273,-121.41957855,0.11694336000005
-84.97315216,-121.37731934,0.11694336000005
-84.96263123,-121.36470795,0.117065430000139
-84.98168182,-121.42355347,0.117065430000139
-84.96331024,-121.43029785,0.1171875
-84.97712708,-121.37064362,0.117309570000089
-84.97057343,-121.42410278,0.117309570000089
-84.97427368,-121.41210938,0.117431640000177
-84.97210693,-121.42046356,0.117431640000177
-84.95822906,-121.41452026,0.117553710000038
-84.97476959,-121.41867065,0.117553710000038
-84.97209167,-121.41770935,0.117675780000127
-84.96743011,-121.37145233,0.117797850000215
-84.97106171,-121.42765808,0.117797850000215
-84.97332001,-121.43411255,0.117919920000077
-84.9598999,-121.38406372,0.118042000000059
-84.96601868,-121.38826752,0.118164070000148
-84.97740173,-121.41738129,0.118286140000009
-84.97744751,-121.41989136,0.118286140000009
-84.96923828,-121.41899872,0.118286140000009
-84.96161652,-121.41678619,0.118286140000009
-84.98432159,-121.36962128,0.118408210000098
-84.95710754,-121.42597198,0.118408210000098
-84.98496246,-121.3738327,0.118530280000186
-84.95210266,-121.41027832,0.118652350000048
-84.97283173,-121.38617706,0.118652350000048
-84.99873352,-121.43054199,0.118652350000048
-84.99976349,-121.37023163,0.118896490000225
-84.99398804,-121.36579895,0.118896490000225
-84.97332764,-121.43110657,0.118896490000225
-84.96970367,-121.42063141,0.118896490000225
-84.95088196,-121.40923309,0.119018560000086
-84.95594025,-121.41539764,0.119018560000086
-84.97196198,-121.42623901,0.119018560000086
-84.95330811,-121.4177475,0.119018560000086
-84.97496033,-121.44252777,0.119140630000174
-84.95572662,-121.41413116,0.119262700000036
-84.97241974,-121.42376709,0.119262700000036
-84.97315216,-121.43686676,0.119262700000036
-84.97197723,-121.38762665,0.119384770000124
-84.99571228,-121.36798096,0.119506840000213
-84.97057343,-121.4153595,0.119506840000213
-84.96987915,-121.36284637,0.119628910000074
-84.95613861,-121.35446167,0.119628910000074
-84.97348785,-121.41658783,0.119628910000074
-84.95596313,-121.36344147,0.119750980000163
-84.97699738,-121.41661835,0.119750980000163
-84.96882629,-121.41522217,0.119750980000163
-84.95546722,-121.39729309,0.119750980000163
-84.99854279,-121.36685944,0.119995120000112
-84.96124268,-121.36923218,0.119995120000112
-84.95880127,-121.36974335,0.119995120000112
