"X","Y","Z"
-84.88613892,-121.35330963,0.250122070000089
-84.88806915,-121.35134125,0.250122070000089
-84.88652039,-121.35196686,0.250122070000089
-84.88301086,-121.384758,0.250244140000177
-84.87863922,-121.42272186,0.250244140000177
-84.88342285,-121.40638733,0.250488280000127
-84.88980865,-121.35591888,0.250488280000127
-84.88578033,-121.35018921,0.250732420000077
-84.94468689,-121.35267639,0.250732420000077
-84.94273376,-121.35135651,0.250854500000059
-84.88092804,-121.41532135,0.250976570000148
-84.93969727,-121.36759949,0.251220710000098
-84.92623138,-121.38210297,0.251220710000098
-84.94087219,-121.41770172,0.251220710000098
-84.89338684,-121.36100769,0.251464850000048
-84.91336823,-121.37818146,0.251708990000225
-84.88890839,-121.36405945,0.251831060000086
-84.8917923,-121.35594177,0.251831060000086
-84.88327026,-121.38362122,0.251953130000174
-84.88141632,-121.3980484,0.252197270000124
-84.8895874,-121.35434723,0.252197270000124
-84.93122864,-121.3894577,0.252807620000112
-84.94148254,-121.36766052,0.253295900000012
-84.88928986,-121.3555603,0.253295900000012
-84.88394165,-121.35063171,0.253295900000012
-84.88713074,-121.3527298,0.2534179700001
-84.90917969,-121.37161255,0.25366211000005
-84.89389801,-121.35968018,0.254150390000177
-84.93334198,-121.4061203,0.254150390000177
-84.93276978,-121.38796234,0.254272460000038
-84.88395691,-121.35630035,0.254516600000215
-84.89201355,-121.35610962,0.254516600000215
-84.88678741,-121.39453888,0.254638670000077
-84.88305664,-121.36797333,0.254882820000148
-84.91236115,-121.37638855,0.255004890000009
-84.89872742,-121.36456299,0.255126960000098
-84.87420654,-121.42983246,0.255249030000186
-84.88527679,-121.35163879,0.255615240000225
-84.93511963,-121.39199829,0.255615240000225
-84.88465118,-121.35106659,0.255859380000174
-84.89530182,-121.36216736,0.255981450000036
-84.91687012,-121.38327789,0.255981450000036
-84.8861084,-121.36549377,0.256347660000074
-84.90077972,-121.35501862,0.256713870000112
-84.88900757,-121.35518646,0.256713870000112
-84.8841095,-121.35202026,0.256835940000201
-84.88401794,-121.38863373,0.257080080000151
-84.89266968,-121.35778809,0.257080080000151
-84.88173676,-121.38014984,0.25756836000005
-84.92585754,-121.39404297,0.25756836000005
-84.88874817,-121.35514832,0.257690430000139
-84.9318924,-121.40354919,0.257690430000139
-84.88041687,-121.40084839,0.2578125
-84.89180756,-121.37700653,0.258056640000177
-84.94805145,-121.42488861,0.258056640000177
-84.91558838,-121.3812027,0.258056640000177
-84.88922882,-121.35478973,0.258544920000077
-84.89703369,-121.3618927,0.258544920000077
-84.8850708,-121.35249329,0.258667000000059
-84.93663025,-121.4107132,0.258667000000059
-84.90093994,-121.36450958,0.258911140000009
-84.8759079,-121.41605377,0.259033210000098
-84.93749237,-121.39497375,0.259033210000098
-84.89877319,-121.36193085,0.259033210000098
-84.88353729,-121.38150024,0.259155280000186
-84.94068146,-121.35002136,0.259155280000186
-84.87998199,-121.40982819,0.259277350000048
-84.94828796,-121.42868805,0.259277350000048
-84.88339233,-121.35015869,0.259521490000225
-84.88935089,-121.35134888,0.259643560000086
-84.88031006,-121.37702942,0.259887700000036
-84.9386673,-121.39698029,0.259887700000036
-84.88704681,-121.35276794,0.259887700000036
-84.94497681,-121.42642975,0.259887700000036
-84.91384125,-121.37859344,0.259887700000036
-84.8901062,-121.35173035,0.260131840000213
-84.90627289,-121.36965179,0.260131840000213
-84.89611816,-121.35054016,0.260375980000163
-84.90940857,-121.37299347,0.260498050000024
-84.88562012,-121.35019684,0.260498050000024
-84.93380737,-121.40901184,0.260498050000024
-84.88627625,-121.35321808,0.260620120000112
-84.9030838,-121.36752319,0.260742190000201
-84.88844299,-121.35604095,0.260742190000201
-84.89597321,-121.36274719,0.260864260000062
-84.94204712,-121.41291809,0.260986330000151
-84.94261932,-121.35102081,0.261108400000012
-84.89575958,-121.35360718,0.261108400000012
-84.91591644,-121.38153076,0.261352540000189
-84.8981781,-121.36354828,0.26147461000005
-84.89987183,-121.35037994,0.26147461000005
-84.89002991,-121.35305786,0.26147461000005
-84.88532257,-121.35140991,0.261596680000139
-84.89254761,-121.35238647,0.26171875
-84.8910675,-121.35131836,0.262084960000038
-84.94454956,-121.41664886,0.262084960000038
-84.90200806,-121.3691864,0.262329100000215
-84.90522766,-121.37004089,0.262451170000077
-84.91770935,-121.38469696,0.262451170000077
-84.90379333,-121.36798859,0.262573250000059
-84.90065765,-121.36437988,0.262695320000148
-84.89971924,-121.35015106,0.262817390000009
-84.9370575,-121.36641693,0.262939460000098
-84.8980484,-121.35202026,0.262939460000098
-84.89492035,-121.35231018,0.262939460000098
-84.90914154,-121.37265015,0.263061530000186
-84.88627625,-121.35214233,0.263061530000186
-84.94338226,-121.35022736,0.263183600000048
-84.93789673,-121.40911865,0.263183600000048
-84.89894104,-121.36305237,0.263305670000136
-84.90432739,-121.36672974,0.263305670000136
-84.89086151,-121.35752869,0.263305670000136
-84.88918304,-121.35521698,0.263549810000086
-84.88976288,-121.3527298,0.263671880000174
-84.88722229,-121.35389709,0.263671880000174
-84.88339996,-121.36625671,0.264038090000213
-84.88079834,-121.36604309,0.264038090000213
-84.91570282,-121.37859344,0.264038090000213
-84.88269806,-121.38378143,0.264160160000074
-84.94081116,-121.41087341,0.264282230000163
-84.88899231,-121.38578796,0.264404300000024
-84.88123322,-121.39762115,0.264404300000024
-84.91475677,-121.37654114,0.264404300000024
-84.91545105,-121.37830353,0.264770510000062
-84.89383698,-121.35075378,0.264770510000062
-84.93740845,-121.36447906,0.264892580000151
-84.8996582,-121.36351776,0.264892580000151
-84.88755035,-121.35112,0.264892580000151
-84.90814209,-121.37204742,0.265014650000012
-84.89647675,-121.35340881,0.265014650000012
-84.89247131,-121.35353088,0.265014650000012
-84.91078949,-121.37513733,0.2651367200001
-84.90471649,-121.35366821,0.2651367200001
-84.87776947,-121.4092865,0.265258790000189
-84.9069519,-121.37000275,0.26538086000005
-84.91397095,-121.37722778,0.265502930000139
-84.9019928,-121.35307312,0.265502930000139
-84.87879944,-121.39704895,0.265625
-84.89633942,-121.3544693,0.265625
-84.9037323,-121.3658371,0.265625
-84.9127121,-121.3793335,0.265625
-84.93914032,-121.36791992,0.265747070000089
-84.89943695,-121.35423279,0.265869140000177
-84.89079285,-121.35093689,0.265869140000177
-84.92011261,-121.39070892,0.265991210000038
-84.89002228,-121.35166168,0.266113280000127
-84.88678741,-121.35080719,0.266113280000127
-84.90734863,-121.3727417,0.266235350000215
-84.88446045,-121.40096283,0.266357420000077
-84.90621185,-121.36943817,0.266357420000077
-84.89552307,-121.35157776,0.266479500000059
-84.89066315,-121.35491943,0.266479500000059
-84.89079285,-121.35646057,0.266601570000148
-84.90686798,-121.35643768,0.266723640000009
-84.88407135,-121.37084961,0.267211920000136
-84.89644623,-121.36134338,0.267211920000136
-84.88173676,-121.38665771,0.267578130000174
-84.90416718,-121.35456848,0.267578130000174
-84.89669037,-121.35356903,0.267822270000124
-84.89608002,-121.35704803,0.267822270000124
-84.89302063,-121.35896301,0.267944340000213
-84.88509369,-121.35118866,0.268066410000074
-84.88845825,-121.35636902,0.268066410000074
-84.88619232,-121.38723755,0.268066410000074
-84.88083649,-121.4057312,0.268188480000163
-84.8886795,-121.35355377,0.268188480000163
-84.90447235,-121.36831665,0.268310550000024
-84.88996887,-121.38210297,0.268554690000201
-84.87782288,-121.41578674,0.268554690000201
-84.88353729,-121.35012054,0.268554690000201
-84.91638184,-121.38493347,0.268676760000062
-84.8811264,-121.3739624,0.268798830000151
-84.89691925,-121.36155701,0.268798830000151
-84.91372681,-121.37586212,0.268920900000012
-84.90825653,-121.35890961,0.2690429700001
-84.88037872,-121.36669159,0.26928711000005
-84.88751984,-121.38258362,0.26928711000005
-84.87548065,-121.43157959,0.26928711000005
-84.92533875,-121.39568329,0.26928711000005
-84.89454651,-121.35746002,0.269409180000139
-84.88394928,-121.37155914,0.26953125
-84.87107086,-121.43862152,0.26953125
-84.88691711,-121.35344696,0.269653320000089
-84.89768982,-121.3608017,0.269775390000177
-84.90617371,-121.36932373,0.270141600000215
-84.89911652,-121.35507965,0.270141600000215
-84.88932037,-121.37654877,0.270263670000077
-84.9058075,-121.35704041,0.270263670000077
-84.90602112,-121.35829926,0.270263670000077
-84.90396118,-121.36798859,0.270263670000077
-84.89597321,-121.35973358,0.270263670000077
-84.90286255,-121.35518646,0.270385750000059
-84.90161133,-121.35540009,0.270385750000059
-84.89691162,-121.35044098,0.270507820000148
-84.90873718,-121.35913086,0.270629890000009
-84.91277313,-121.37377167,0.270629890000009
-84.87185669,-121.43634796,0.271118170000136
-84.90364838,-121.35394287,0.271118170000136
-84.88330841,-121.38948822,0.271606450000036
-84.89025879,-121.37374115,0.271728520000124
-84.87480164,-121.38536835,0.271850590000213
-84.89402771,-121.35710907,0.271850590000213
-84.87953949,-121.37875366,0.272460940000201
-84.88957977,-121.35518646,0.272460940000201
-84.90296173,-121.36712646,0.272583010000062
-84.90402222,-121.35714722,0.272705080000151
-84.91661835,-121.37783051,0.272827150000012
-84.8968811,-121.35366821,0.272827150000012
-84.90123749,-121.36605835,0.2729492200001
-84.89666748,-121.36016083,0.2729492200001
-84.90151215,-121.36200714,0.273315430000139
-84.87702942,-121.4183197,0.273559570000089
-84.90747833,-121.35823822,0.273559570000089
-84.88516998,-121.36654663,0.273681640000177
-84.91539001,-121.37700653,0.273681640000177
-84.8894577,-121.38353729,0.273803710000038
-84.88018799,-121.37574768,0.273925780000127
-84.89232635,-121.37399292,0.274047850000215
-84.88294983,-121.35066986,0.274047850000215
-84.89846039,-121.35066986,0.274169920000077
-84.88793945,-121.35133362,0.274169920000077
-84.87265778,-121.42558289,0.274292000000059
-84.90727997,-121.35646057,0.274292000000059
-84.90277863,-121.36431122,0.274414070000148
-84.88730621,-121.35504913,0.274414070000148
-84.90644836,-121.35865784,0.275024420000136
-84.91124725,-121.37283325,0.275024420000136
-84.91536713,-121.37696838,0.275024420000136
-84.87535858,-121.40786743,0.275146490000225
-84.87399292,-121.42092896,0.275146490000225
-84.89772034,-121.35011292,0.275146490000225
-84.94998169,-121.35054779,0.275268560000086
-84.90518188,-121.36711884,0.275268560000086
-84.88517761,-121.35095215,0.275268560000086
-84.9207077,-121.38188171,0.275390630000174
-84.90725708,-121.35665894,0.275756840000213
-84.91014862,-121.36000061,0.275878910000074
-84.94880676,-121.35707855,0.276245120000112
-84.94880676,-121.36447906,0.276245120000112
-84.90174866,-121.35671234,0.276489260000062
-84.8848877,-121.36776733,0.276611330000151
-84.92215729,-121.38475037,0.276611330000151
-84.88729095,-121.35498047,0.276733400000012
-84.89710236,-121.35243988,0.2768554700001
-84.88768768,-121.35056305,0.27709961000005
-84.92710876,-121.39217377,0.27709961000005
-84.88491058,-121.35929871,0.27734375
-84.89898682,-121.3563385,0.27734375
-84.87893677,-121.37969971,0.277465820000089
-84.90805054,-121.37039185,0.277465820000089
-84.93383026,-121.40273285,0.277465820000089
-84.9094696,-121.37294006,0.277587890000177
-84.89658356,-121.36125946,0.277587890000177
-84.88426208,-121.37705231,0.277709960000038
-84.88131714,-121.371521,0.277954100000215
-84.89800262,-121.35102081,0.278076170000077
-84.87425995,-121.41130066,0.278320320000148
-84.91436005,-121.37606812,0.278442390000009
-84.88796997,-121.36424255,0.278564460000098
-84.87259674,-121.4254303,0.278564460000098
-84.91040802,-121.3586731,0.278564460000098
-84.91053009,-121.37068176,0.278686530000186
-84.91828156,-121.37869263,0.278808600000048
-84.91155243,-121.36219788,0.278930670000136
-84.94988251,-121.36849213,0.279174810000086
-84.90881348,-121.36961365,0.279174810000086
-84.8984375,-121.35726166,0.279174810000086
-84.89510345,-121.3601532,0.279418950000036
-84.91191101,-121.37419891,0.279663090000213
-84.90350342,-121.35540771,0.279663090000213
-84.88477325,-121.35131836,0.279785160000074
-84.89742279,-121.35771179,0.279907230000163
-84.90782166,-121.3687973,0.280151370000112
-84.90512848,-121.36695099,0.280273440000201
-84.8867569,-121.37693024,0.2807617200001
-84.89337158,-121.35903931,0.280883790000189
-84.90960693,-121.35955811,0.281127930000139
-84.89463043,-121.35858154,0.281127930000139
-84.88477325,-121.36734772,0.281372070000089
-84.88243103,-121.38317108,0.281372070000089
-84.91204834,-121.36112976,0.281372070000089
-84.90225983,-121.35456085,0.281372070000089
-84.94998169,-121.36786652,0.281616210000038
-84.8853302,-121.35778046,0.281616210000038
-84.90544128,-121.35665131,0.281738280000127
-84.88111877,-121.3793335,0.281982420000077
-84.89575958,-121.36209106,0.282104500000059
-84.90701294,-121.36193848,0.282470710000098
-84.91583252,-121.37574005,0.282470710000098
-84.94165802,-121.35003662,0.282592780000186
-84.90049744,-121.35446167,0.282592780000186
-84.94883728,-121.38858032,0.282592780000186
-84.93981934,-121.35298157,0.282714850000048
-84.92063904,-121.38163757,0.282714850000048
-84.9155426,-121.37671661,0.282714850000048
-84.90260315,-121.36679077,0.282714850000048
-84.8833313,-121.35556793,0.283203130000174
-84.93714905,-121.41059875,0.283203130000174
-84.92478943,-121.38450623,0.283325200000036
-84.91867065,-121.38030243,0.283325200000036
-84.94254303,-121.35353851,0.283447270000124
-84.93907166,-121.35241699,0.283691410000074
-84.91487885,-121.36564636,0.283813480000163
-84.924263,-121.36945343,0.284057620000112
-84.88456726,-121.36038208,0.284423830000151
-84.88024902,-121.39858246,0.284423830000151
-84.94848633,-121.36447906,0.284790040000189
-84.92279053,-121.36837769,0.284790040000189
-84.90067291,-121.35590363,0.28491211000005
-84.9210434,-121.36830902,0.285034180000139
-84.90294647,-121.36296844,0.28515625
-84.90551758,-121.36856079,0.28515625
-84.93422699,-121.39376068,0.285278320000089
-84.87756348,-121.41519165,0.285522460000038
-84.94657135,-121.35186005,0.285522460000038
-84.9107666,-121.37043762,0.285644530000127
-84.90963745,-121.3646698,0.285766600000215
-84.93621826,-121.39380646,0.285766600000215
-84.91864014,-121.38210297,0.285766600000215
-84.89279175,-121.35185242,0.285888670000077
-84.90158844,-121.36589813,0.286010750000059
-84.94696808,-121.35485077,0.286132820000148
-84.93904877,-121.3523407,0.286132820000148
-84.91074371,-121.36144257,0.286132820000148
-84.89993286,-121.35533142,0.286132820000148
-84.89032745,-121.35051727,0.286132820000148
-84.94223022,-121.35443878,0.286254890000009
-84.90049744,-121.35434723,0.286254890000009
-84.87500763,-121.4164505,0.286499030000186
-84.88448334,-121.36004639,0.286621100000048
-84.92353058,-121.38359833,0.286743170000136
-84.94773865,-121.35410309,0.286865240000225
-84.9140625,-121.37452698,0.286865240000225
-84.91828156,-121.36791229,0.286987310000086
-84.90358734,-121.36566925,0.287231450000036
-84.94827271,-121.37336731,0.287353520000124
-84.90982819,-121.36611938,0.287353520000124
-84.92124939,-121.36849213,0.287475590000213
-84.92935181,-121.38902283,0.287475590000213
-84.93450165,-121.3924408,0.287475590000213
-84.91587067,-121.36480713,0.287597660000074
-84.94463348,-121.35340881,0.287841800000024
-84.92443848,-121.37058258,0.287841800000024
-84.94766998,-121.36682129,0.288085940000201
-84.91059113,-121.37338257,0.288085940000201
-84.92230988,-121.39070129,0.288208010000062
-84.92025757,-121.36791992,0.288452150000012
-84.92066193,-121.37895203,0.2885742200001
-84.9486084,-121.35732269,0.288696290000189
-84.90801239,-121.36752319,0.28881836000005
-84.92677307,-121.38313293,0.2890625
-84.94077301,-121.35205078,0.289184570000089
-84.94017029,-121.39688873,0.289184570000089
-84.92958069,-121.38922119,0.289306640000177
-84.94419098,-121.35440063,0.289550780000127
-84.9133606,-121.3644104,0.289550780000127
-84.93092346,-121.39401245,0.289672850000215
-84.92771149,-121.3848877,0.289917000000059
-84.94837189,-121.37272644,0.290039070000148
-84.92675781,-121.38310242,0.290039070000148
-84.92240906,-121.37043762,0.290161140000009
-84.91275787,-121.37487793,0.290405280000186
-84.90473175,-121.36009979,0.290527350000048
-84.92089081,-121.37088013,0.290649420000136
-84.94753265,-121.36750031,0.291137700000036
-84.91178131,-121.37406921,0.291137700000036
-84.94216156,-121.42366028,0.291381840000213
-84.91906738,-121.38848114,0.291381840000213
-84.91945648,-121.36855316,0.291503910000074
-84.91339874,-121.37010956,0.291503910000074
-84.92111969,-121.37110138,0.291870120000112
-84.94663239,-121.43079376,0.291870120000112
-84.90075684,-121.3586731,0.291992190000201
-84.920578,-121.37206268,0.292358400000012
-84.93203735,-121.3891983,0.292358400000012
-84.94641113,-121.35437012,0.292602540000189
-84.9227829,-121.38162994,0.29272461000005
-84.91375732,-121.37407684,0.292846680000139
-84.91977692,-121.38957214,0.292846680000139
-84.92697144,-121.40042114,0.293212890000177
-84.89849854,-121.35829926,0.293457030000127
-84.91506195,-121.3723526,0.293579100000215
-84.91403961,-121.37281036,0.293579100000215
-84.92077637,-121.37326813,0.293945320000148
-84.92913055,-121.38578796,0.294433600000048
-84.91889191,-121.36968994,0.294555670000136
-84.9287262,-121.37476349,0.294555670000136
-84.89453125,-121.35073853,0.294677740000225
-84.9364624,-121.39074707,0.295166020000124
-84.93401337,-121.38916779,0.295288090000213
-84.91761017,-121.37812805,0.295288090000213
-84.88909149,-121.35468292,0.295288090000213
-84.91838837,-121.36914063,0.295532230000163
-84.91075897,-121.36537933,0.295532230000163
-84.92471313,-121.37484741,0.295532230000163
-84.89524078,-121.35762024,0.295654300000024
-84.93624115,-121.41448212,0.295898440000201
-84.90704346,-121.36398315,0.296508790000189
-84.93071747,-121.3507309,0.296508790000189
-84.90061951,-121.36125183,0.297119140000177
-84.9226532,-121.3762207,0.297241210000038
-84.91475677,-121.38497162,0.297241210000038
-84.92710114,-121.38562012,0.297607420000077
-84.92006683,-121.37837982,0.297607420000077
-84.948349,-121.43051147,0.297729500000059
-84.92839813,-121.37613678,0.297851570000148
-84.91905975,-121.37082672,0.298095710000098
-84.9457016,-121.35115814,0.298217780000186
-84.94535828,-121.36715698,0.298339850000048
-84.92405701,-121.37821198,0.299072270000124
-84.93660736,-121.35334015,0.299194340000213
-84.9230423,-121.37892914,0.299194340000213
-84.89414978,-121.35922241,0.299194340000213
-84.89803314,-121.35910797,0.299194340000213
-84.90794373,-121.36617279,0.299316410000074
-84.92539978,-121.37523651,0.299560550000024
-84.90103912,-121.36269379,0.299682620000112
-84.93470001,-121.35050201,0.299804690000201
-84.92559814,-121.39814758,0.299804690000201
-84.94020081,-121.3974762,0.299926760000062
-84.90949249,-121.37657928,0.3002929700001
-84.89292145,-121.35037994,0.300659180000139
-84.91899109,-121.37197876,0.300903320000089
-84.94235992,-121.40000916,0.301025390000177
-84.89134979,-121.35205078,0.301391600000215
-84.92339325,-121.37510681,0.301513670000077
-84.8911438,-121.35855103,0.301635750000059
-84.91040802,-121.37818146,0.301757820000148
-84.90786743,-121.36734009,0.301879890000009
-84.9310379,-121.40638733,0.302001960000098
-84.88733673,-121.35214996,0.302124030000186
-84.93515015,-121.35092926,0.302612310000086
-84.89823914,-121.35549164,0.302612310000086
-84.92900085,-121.37901306,0.302734380000174
-84.93115997,-121.38182068,0.302856450000036
-84.94793701,-121.40072632,0.302856450000036
-84.8917923,-121.35352325,0.302978520000124
-84.93315125,-121.38989258,0.303100590000213
-84.89772797,-121.36139679,0.303466800000024
-84.92037964,-121.3744278,0.303955080000151
-84.90659332,-121.36746979,0.304077150000012
-84.93318939,-121.38835907,0.304077150000012
-84.9466629,-121.35024261,0.30444336000005
-84.93253326,-121.38529968,0.304931640000177
-84.88944244,-121.35588074,0.305053710000038
-84.89241028,-121.35669708,0.305908210000098
-84.8984375,-121.35974121,0.305908210000098
-84.9021225,-121.35800934,0.306030280000186
-84.94030762,-121.3527298,0.306152350000048
-84.93565369,-121.38886261,0.306396490000225
-84.93801117,-121.39318848,0.306518560000086
-84.94306183,-121.39936066,0.306518560000086
-84.93479156,-121.38432312,0.306640630000174
-84.9210434,-121.37610626,0.306762700000036
-84.89726257,-121.35331726,0.306762700000036
-84.93808746,-121.35137939,0.306884770000124
-84.94297791,-121.40184784,0.306884770000124
-84.93585205,-121.39009857,0.306884770000124
-84.943573,-121.35205841,0.307006840000213
-84.94187927,-121.39730072,0.307006840000213
-84.90557098,-121.3588028,0.30834961000005
-84.9178009,-121.37519836,0.308471680000139
-84.89650726,-121.35273743,0.308471680000139
-84.9384079,-121.38787842,0.30859375
-84.93811035,-121.35006714,0.308837890000177
-84.94750977,-121.35337067,0.309082030000127
-84.94766235,-121.35636902,0.309448250000059
-84.90677643,-121.35952759,0.309814460000098
-84.91210938,-121.37271118,0.310058600000048
-84.92701721,-121.35215759,0.310546880000174
-84.92431641,-121.35031128,0.310668950000036
-84.89080811,-121.35022736,0.310913090000213
-84.90838623,-121.36354828,0.311035160000074
-84.90381622,-121.35765076,0.311035160000074
-84.94992828,-121.3551178,0.311401370000112
-84.9043808,-121.36340332,0.311645510000062
-84.91870117,-121.37711334,0.31225586000005
-84.94811249,-121.35678101,0.312377930000139
-84.94203949,-121.35108185,0.312377930000139
-84.90857697,-121.36476135,0.3125
-84.91306305,-121.36540222,0.312866210000038
-84.89813232,-121.35514069,0.313110350000215
-84.90593719,-121.36061096,0.314331060000086
-84.92848206,-121.40560913,0.314331060000086
-84.92649841,-121.38253021,0.314819340000213
-84.90496063,-121.35980988,0.315063480000163
-84.92993164,-121.38464355,0.315185550000024
-84.89067841,-121.35256958,0.315673830000151
-84.94571686,-121.35208893,0.315795900000012
-84.89409637,-121.35492706,0.315795900000012
-84.91841125,-121.36894226,0.316772460000038
-84.90148163,-121.35864258,0.316772460000038
-84.9048996,-121.36100006,0.316894530000127
-84.88596344,-121.35086823,0.317138670000077
-84.92128754,-121.37197113,0.318969730000163
-84.91622925,-121.37380981,0.318969730000163
-84.89304352,-121.35553741,0.319091800000024
-84.91384125,-121.38295746,0.319091800000024
-84.903862,-121.36138153,0.319335940000201
-84.92025757,-121.37267303,0.319458010000062
-84.9193573,-121.3693924,0.319580080000151
-84.91796875,-121.37384033,0.319702150000012
-84.92350769,-121.37225342,0.320190430000139
-84.88543701,-121.35024261,0.320556640000177
-84.94941711,-121.35176849,0.321533210000098
-84.90180969,-121.36171722,0.322387700000036
-84.92613983,-121.3752594,0.322631840000213
-84.92246246,-121.3728714,0.323242190000201
-84.92075348,-121.37155914,0.323364260000062
-84.92920685,-121.38004303,0.324951170000077
-84.93409729,-121.39144897,0.325195320000148
-84.89562988,-121.35842133,0.325195320000148
-84.90222168,-121.36309814,0.326416020000124
-84.90074921,-121.36205292,0.326660160000074
-84.93547058,-121.39495087,0.326782230000163
-84.92263031,-121.37400055,0.327270510000062
-84.91053772,-121.36858368,0.32788086000005
-84.93534088,-121.38288116,0.328369140000177
-84.92751312,-121.37737274,0.328369140000177
-84.91053009,-121.3685379,0.328979500000059
-84.91912079,-121.37330627,0.329467780000186
-84.92327881,-121.37593079,0.330078130000174
-84.89974213,-121.36113739,0.330322270000124
-84.90242767,-121.3629837,0.330444340000213
-84.93792725,-121.38713837,0.330566410000074
-84.93482971,-121.3822937,0.330688480000163
-84.93860626,-121.35011292,0.331176760000062
-84.92841339,-121.37956238,0.331298830000151
-84.90093994,-121.36210632,0.332397460000038
-84.88950348,-121.35141754,0.334350590000213
-84.9439621,-121.35340881,0.335083010000062
-84.94200134,-121.3520813,0.3354492200001
-84.89511108,-121.3553009,0.336059570000089
-84.93076324,-121.38220978,0.336547850000215
-84.94888306,-121.3552475,0.337158210000098
-84.94373322,-121.39111328,0.337524420000136
-84.89064789,-121.35360718,0.337524420000136
-84.93614197,-121.385849,0.337768560000086
-84.93144226,-121.38392639,0.338378910000074
-84.92581177,-121.37998962,0.338500980000163
-84.94513702,-121.39335632,0.338867190000201
-84.89601898,-121.35723877,0.338867190000201
-84.94965363,-121.37950897,0.339111330000151
-84.92066193,-121.37653351,0.33959961000005
-84.89331055,-121.35536194,0.340087890000177
-84.9240799,-121.37888336,0.340209960000038
-84.94046783,-121.38987732,0.341430670000136
-84.92920685,-121.38224792,0.341552740000225
-84.93482971,-121.38617706,0.341796880000174
-84.94677734,-121.39582062,0.341918950000036
-84.9213562,-121.37695313,0.342895510000062
-84.94802094,-121.39528656,0.343994140000177
-84.92745972,-121.38110352,0.344238280000127
-84.89739227,-121.35935211,0.344482420000077
-84.9039917,-121.36379242,0.345458990000225
-84.94862366,-121.35218048,0.346557620000112
-84.90447235,-121.36401367,0.346801760000062
-84.94342041,-121.35022736,0.34741211000005
-84.94638824,-121.39813232,0.347534180000139
-84.94329071,-121.39324951,0.348388670000077
-84.94761658,-121.35159302,0.348510750000059
-84.94206238,-121.3924408,0.348754890000009
-84.94558716,-121.39904785,0.349121100000048
