"X","Y","Z"
-84.8380127,-121.40155029,0.150024420000136
-84.8421936,-121.42572021,0.150268560000086
-84.83503723,-121.3911972,0.150268560000086
-84.84636688,-121.40618896,0.150390630000174
-84.83637238,-121.39981842,0.150756840000213
-84.83355713,-121.39012909,0.150756840000213
-84.84584045,-121.42857361,0.150878910000074
-84.8157196,-121.41567993,0.150878910000074
-84.8217926,-121.41841125,0.151123050000024
-84.84043884,-121.43994904,0.151489260000062
-84.84162903,-121.42690277,0.1518554700001
-84.83579254,-121.39041138,0.151977540000189
-84.83056641,-121.42839813,0.151977540000189
-84.83463287,-121.41889954,0.152221680000139
-84.83815765,-121.40116882,0.152587890000177
-84.84317017,-121.44393921,0.152587890000177
-84.84436035,-121.40396118,0.152954100000215
-84.84604645,-121.40718079,0.153076170000077
-84.84042358,-121.40220642,0.153076170000077
-84.84237671,-121.4030838,0.153198250000059
-84.83437347,-121.41886139,0.153198250000059
-84.84092712,-121.42481995,0.153442390000009
-84.82019043,-121.40863037,0.153442390000009
-84.83238983,-121.43132019,0.153442390000009
-84.82953644,-121.42960358,0.153930670000136
-84.84055328,-121.44274902,0.153930670000136
-84.81919861,-121.40782928,0.154174810000086
-84.82170105,-121.4207077,0.154174810000086
-84.83162689,-121.41797638,0.154418950000036
-84.83492279,-121.40406036,0.154541020000124
-84.82914734,-121.39385986,0.154785160000074
-84.84600067,-121.42993927,0.154907230000163
-84.8213501,-121.41062164,0.155029300000024
-84.83016205,-121.41690826,0.155151370000112
-84.82578278,-121.42681885,0.155395510000062
-84.84510803,-121.4263916,0.155517580000151
-84.82356262,-121.39615631,0.155639650000012
-84.83070374,-121.43147278,0.155639650000012
-84.84374237,-121.40602112,0.1557617200001
-84.84004211,-121.40294647,0.155883790000189
-84.83796692,-121.42263794,0.156127930000139
-84.830513,-121.40260315,0.156494140000177
-84.84671783,-121.43041229,0.156494140000177
-84.81918335,-121.40775299,0.156494140000177
-84.81913757,-121.40899658,0.156494140000177
-84.82228088,-121.39684296,0.156616210000038
-84.82359314,-121.42340851,0.156982420000077
-84.83072662,-121.43148804,0.156982420000077
-84.84577942,-121.42835999,0.157104500000059
-84.82003021,-121.4042511,0.157348640000009
-84.82115936,-121.40802765,0.157470710000098
-84.8391037,-121.4434433,0.157470710000098
-84.82176971,-121.41229248,0.158081060000086
-84.84210968,-121.40319824,0.158203130000174
-84.82067108,-121.39948273,0.158203130000174
-84.83525085,-121.4033432,0.158325200000036
-84.84912872,-121.40377045,0.158569340000213
-84.8245163,-121.42501068,0.158691410000074
-84.84796906,-121.40068054,0.158935550000024
-84.84095764,-121.4491272,0.159057620000112
-84.84501648,-121.40126801,0.159423830000151
-84.83032227,-121.41828156,0.159423830000151
-84.81697083,-121.41941833,0.160034180000139
-84.83812714,-121.42401123,0.16015625
-84.82511902,-121.41607666,0.160278320000089
-84.84053802,-121.40061951,0.160522460000038
-84.8319397,-121.40596771,0.160888670000077
-84.82804108,-121.38710785,0.161376960000098
-84.83786774,-121.42395782,0.161376960000098
-84.82279968,-121.42566681,0.161499030000186
-84.8334198,-121.42205811,0.161621100000048
-84.84710693,-121.41017914,0.162231450000036
-84.83457947,-121.44541168,0.162353520000124
-84.84387207,-121.40444946,0.162719730000163
-84.84860229,-121.43174744,0.1635742200001
-84.82053375,-121.40982056,0.1635742200001
-84.81858063,-121.4082489,0.163696290000189
-84.82935333,-121.40586853,0.1640625
-84.83070374,-121.40992737,0.164306640000177
-84.84750366,-121.40847778,0.164428710000038
-84.84461212,-121.4019165,0.164672850000215
-84.83219147,-121.38887024,0.165161140000009
-84.83638,-121.40538025,0.165405280000186
-84.84494019,-121.409729,0.165771490000225
-84.83013916,-121.4036026,0.165771490000225
-84.82762909,-121.403862,0.166015630000174
-84.84681702,-121.43161011,0.166015630000174
-84.81977844,-121.39344025,0.166259770000124
-84.82878113,-121.39320374,0.167114260000062
-84.82823944,-121.3941803,0.167358400000012
-84.83075714,-121.39321899,0.168334960000038
-84.81999207,-121.40135193,0.169189460000098
-84.84942627,-121.43483734,0.169433600000048
-84.84636688,-121.40442657,0.169555670000136
-84.8213501,-121.39736176,0.170410160000074
-84.82795715,-121.3940506,0.170776370000112
-84.84797668,-121.41349792,0.170898440000201
-84.82122803,-121.40081024,0.171752930000139
-84.84632874,-121.40434265,0.171997070000089
-84.81947327,-121.39298248,0.172241210000038
-84.84892273,-121.41068268,0.172607420000077
-84.82540894,-121.39466095,0.172851570000148
-84.82270813,-121.39279175,0.173706060000086
-84.8208313,-121.40473175,0.174072270000124
-84.84951782,-121.40870667,0.174194340000213
-84.84306335,-121.40592194,0.1752929700001
-84.8321991,-121.40408325,0.1752929700001
-84.83547211,-121.40749359,0.1752929700001
-84.8337326,-121.40653992,0.176147460000038
-84.81963348,-121.40097809,0.180175780000127
