"X","Y","Z"
-84.96434021,-121.45162964,0.151000980000163
-84.98071289,-121.45027161,0.154174810000086
-84.97963715,-121.45144653,0.154907230000163
-84.97744751,-121.45104218,0.15600586000005
-84.97634888,-121.45220947,0.15600586000005
-84.97646332,-121.45130157,0.156616210000038
-84.97973633,-121.45149994,0.158203130000174
-84.97580719,-121.45371246,0.158447270000124
-84.97894287,-121.45571899,0.159057620000112
-84.97608948,-121.45400238,0.16015625
-84.97779083,-121.45162964,0.160400390000177
-84.96456146,-121.45440674,0.160644530000127
-84.97836304,-121.4574585,0.161132820000148
-84.98075867,-121.4526825,0.161132820000148
-84.97696686,-121.45282745,0.161254890000009
-84.97374725,-121.45191193,0.162353520000124
-84.97724915,-121.45287323,0.162475590000213
-84.98388672,-121.45179749,0.163452150000012
-84.97862244,-121.45526123,0.16381836000005
-84.97173309,-121.45046234,0.164428710000038
-84.97949982,-121.45082855,0.164917000000059
-84.97953033,-121.45384979,0.165405280000186
-84.97357941,-121.45314026,0.165771490000225
-84.97760773,-121.45622253,0.166137700000036
-84.98088837,-121.45623016,0.166748050000024
-84.95963287,-121.45472717,0.1674804700001
-84.97389984,-121.45346069,0.169067390000009
-84.97589111,-121.4506073,0.169311530000186
-84.96370697,-121.45179749,0.169433600000048
-84.97747803,-121.45600891,0.169677740000225
-84.9812088,-121.45028687,0.170166020000124
-84.99941254,-121.45613861,0.170654300000024
-84.98145294,-121.4538269,0.170776370000112
-84.97238922,-121.45111084,0.170898440000201
-84.97659302,-121.45194244,0.171020510000062
-84.97840881,-121.45761108,0.171142580000151
-84.98233032,-121.45240021,0.171264650000012
-84.97135925,-121.45423126,0.171508790000189
-84.98352051,-121.45677185,0.171997070000089
-84.97556305,-121.45588684,0.171997070000089
-84.97910309,-121.45567322,0.172363280000127
-84.98130798,-121.45661163,0.172973640000009
-84.9753418,-121.45262909,0.172973640000009
-84.97070313,-121.45101166,0.172973640000009
-84.97447968,-121.45432281,0.173461920000136
-84.98332977,-121.45677948,0.173950200000036
-84.97424316,-121.45723724,0.174194340000213
-84.9779892,-121.45034027,0.174316410000074
-84.97006226,-121.45023346,0.174438480000163
-84.98249054,-121.45822906,0.174682620000112
-84.98200226,-121.45166779,0.174804690000201
-84.97519684,-121.45797729,0.175415040000189
-84.98206329,-121.45445251,0.17578125
-84.98787689,-121.45303345,0.177001960000098
-84.98278046,-121.45552826,0.177246100000048
-84.98327637,-121.46209717,0.177612310000086
-84.9774704,-121.45036316,0.177612310000086
-84.97058868,-121.45107269,0.177734380000174
-84.98278809,-121.45880127,0.177978520000124
-84.9777298,-121.45941162,0.178100590000213
-84.98066711,-121.46064758,0.178710940000201
-84.98416901,-121.45767212,0.178955080000151
-84.99308777,-121.46067047,0.178955080000151
-84.98439789,-121.4549408,0.17944336000005
-84.981987,-121.46002197,0.17944336000005
-84.97090149,-121.45111847,0.17944336000005
-84.98152161,-121.45646667,0.179565430000139
-84.979599,-121.46183777,0.1796875
-84.97868347,-121.45288086,0.179931640000177
-84.97316742,-121.45456696,0.180542000000059
-84.98287201,-121.45259094,0.181030280000186
-84.98047638,-121.45767212,0.181518560000086
-84.98401642,-121.45745087,0.181640630000174
-84.97427368,-121.45393372,0.182006840000213
-84.98867035,-121.45606995,0.182128910000074
-84.98123169,-121.46125031,0.182250980000163
-84.96827698,-121.45855713,0.182250980000163
-84.98446655,-121.45523834,0.182495120000112
-84.97379303,-121.4539566,0.183227540000189
-84.9803772,-121.45995331,0.183715820000089
-84.97437286,-121.45646667,0.183715820000089
-84.97367096,-121.45265198,0.183837890000177
-84.97091675,-121.45776367,0.184448250000059
-84.9832077,-121.45291138,0.184570320000148
-84.98148346,-121.45905304,0.184692390000009
-84.98223877,-121.45159912,0.184936530000186
-84.97258759,-121.45108795,0.185424810000086
-84.98722076,-121.45931244,0.185424810000086
-84.98523712,-121.45687866,0.185546880000174
-84.97016144,-121.45014954,0.185668950000036
-84.98406982,-121.45200348,0.185791020000124
-84.96887207,-121.45079803,0.186035160000074
-84.97280884,-121.45053864,0.186157230000163
-84.97486115,-121.45127869,0.186279300000024
-84.98042297,-121.45723724,0.186523440000201
-84.97055817,-121.45044708,0.186889650000012
-84.99371338,-121.45732117,0.186889650000012
-84.97715759,-121.45578766,0.1870117200001
-84.98487091,-121.46160889,0.187133790000189
-84.98313141,-121.46147919,0.187377930000139
-84.98458099,-121.45256042,0.1875
-84.98483276,-121.45584106,0.1875
-84.97691345,-121.45446777,0.1875
-84.97569275,-121.4538269,0.187866210000038
-84.96645355,-121.45039368,0.187866210000038
-84.9684906,-121.45005035,0.187988280000127
-84.98490143,-121.45836639,0.188110350000215
-84.97219849,-121.45320129,0.188476570000148
-84.99606323,-121.45337677,0.188598640000009
-84.99739838,-121.4561615,0.188720710000098
-84.98413086,-121.4536972,0.188964850000048
-84.98332214,-121.45323944,0.189086920000136
-84.97470856,-121.45105743,0.189086920000136
-84.97119904,-121.4542923,0.189086920000136
-84.98374176,-121.45127106,0.189575200000036
-84.98210144,-121.462677,0.189697270000124
-84.98564911,-121.46247101,0.190307620000112
-84.97229767,-121.45039368,0.190429690000201
-84.99910736,-121.4582901,0.190551760000062
-84.98513794,-121.45316315,0.190673830000151
-84.98368835,-121.46206665,0.190673830000151
-84.96481323,-121.45005035,0.190673830000151
-84.99549103,-121.454422,0.19116211000005
-84.98327637,-121.46430206,0.191284180000139
-84.985672,-121.46273804,0.191528320000089
-84.99624634,-121.45935059,0.191772460000038
-84.98522186,-121.45594025,0.192138670000077
-84.96331787,-121.45072174,0.192871100000048
-84.98980713,-121.45839691,0.193115240000225
-84.97618866,-121.45625305,0.193237310000086
-84.98155975,-121.46144104,0.193481450000036
-84.99862671,-121.45980835,0.193603520000124
-84.97332764,-121.45452881,0.193603520000124
-84.97223663,-121.45001984,0.193969730000163
-84.98256683,-121.45200348,0.194091800000024
-84.97644806,-121.45678711,0.194702150000012
-84.99662781,-121.45020294,0.194946290000189
-84.98139954,-121.46095276,0.194946290000189
-84.9770813,-121.45281982,0.195190430000139
-84.99777222,-121.45326996,0.1953125
-84.98531342,-121.45600128,0.195434570000089
-84.98027802,-121.4626236,0.195434570000089
-84.97335052,-121.45375824,0.195556640000177
-84.98446655,-121.45703888,0.195556640000177
-84.97091675,-121.45085907,0.195678710000038
-84.99878693,-121.45941925,0.196044920000077
-84.97733307,-121.45555115,0.196044920000077
-84.96341705,-121.45076752,0.196167000000059
-84.9754715,-121.45780182,0.196411140000009
-84.97998047,-121.46518707,0.196777350000048
-84.97760773,-121.46086121,0.196899420000136
-84.97855377,-121.45974731,0.197021490000225
-84.98426819,-121.46044922,0.197143560000086
-84.99787903,-121.45265198,0.197631840000213
-84.97427368,-121.45571899,0.197631840000213
-84.98213959,-121.46230316,0.197875980000163
-84.99389648,-121.45192719,0.197998050000024
-84.98342133,-121.46650696,0.198120120000112
-84.97437286,-121.45593262,0.198242190000201
-84.9990387,-121.45825958,0.198364260000062
-84.97927094,-121.46336365,0.198486330000151
-84.97123718,-121.45432281,0.198608400000012
-84.97882843,-121.46005249,0.198852540000189
-84.97621918,-121.45924377,0.199096680000139
-84.98365784,-121.46647644,0.199340820000089
-84.99861908,-121.45012665,0.199462890000177
-84.99939728,-121.45633698,0.199707030000127
-84.97364044,-121.45113373,0.199707030000127
-84.97618866,-121.45884705,0.199707030000127
-84.98145294,-121.45275116,0.200073250000059
-84.98152924,-121.4645462,0.200195320000148
-84.98240662,-121.4598465,0.200439460000098
-84.98329163,-121.45078278,0.200439460000098
-84.98236084,-121.45735168,0.200683600000048
-84.97979736,-121.4644165,0.200683600000048
-84.97715759,-121.46295929,0.200805670000136
-84.96373749,-121.459198,0.201171880000174
-84.98532104,-121.46160126,0.201538090000213
-84.98513794,-121.46385193,0.201538090000213
-84.97731781,-121.46044159,0.201782230000163
-84.97348785,-121.45504761,0.202148440000201
-84.96891022,-121.45355225,0.202270510000062
-84.99771881,-121.45326996,0.202392580000151
-84.97855377,-121.46510315,0.202514650000012
-84.97251129,-121.45910645,0.203002930000139
-84.98410797,-121.45172119,0.203125
-84.98583984,-121.46517944,0.203247070000089
-84.98033905,-121.46723938,0.203369140000177
-84.98149872,-121.46044922,0.203613280000127
-84.97052765,-121.45314789,0.203735350000215
-84.97812653,-121.46459198,0.203979500000059
-84.96421051,-121.45905304,0.203979500000059
-84.97518158,-121.45603943,0.204101570000148
-84.99994659,-121.45426941,0.204223640000009
-84.98390198,-121.46479034,0.204345710000098
-84.95706177,-121.4644165,0.204467780000186
-84.97279358,-121.45941162,0.204711920000136
-84.98114014,-121.45230103,0.205078130000174
-84.97557068,-121.45926666,0.205322270000124
-84.97335815,-121.45630646,0.205444340000213
-84.9848175,-121.46639252,0.205566410000074
-84.97609711,-121.45800018,0.206298830000151
-84.98365021,-121.4560318,0.206420900000012
-84.98522186,-121.46166992,0.2065429700001
-84.9994812,-121.45580292,0.20678711000005
-84.97193146,-121.45836639,0.20678711000005
-84.9606781,-121.45098877,0.20678711000005
-84.98712158,-121.46959686,0.206909180000139
-84.97801971,-121.46411896,0.207275390000177
-84.98602295,-121.47102356,0.207397460000038
-84.97637177,-121.45697021,0.207519530000127
-84.99127197,-121.46389008,0.207763670000077
-84.98258972,-121.45420837,0.208251960000098
-84.9864502,-121.46579742,0.208251960000098
-84.98092651,-121.46587372,0.208374030000186
-84.97223663,-121.4584198,0.208496100000048
-84.99819183,-121.45088196,0.208740240000225
-84.99093628,-121.45162201,0.208740240000225
-84.98626709,-121.46829987,0.208740240000225
-84.98303223,-121.46714783,0.208862310000086
-84.98375702,-121.45583344,0.209716800000024
-84.97384644,-121.45755768,0.209716800000024
-84.98607635,-121.46806335,0.209960940000201
-84.96331787,-121.46263123,0.210083010000062
-84.98587799,-121.45262146,0.210205080000151
-84.97830963,-121.46169281,0.210571290000189
-84.96714783,-121.45053101,0.210571290000189
-84.98574066,-121.45491791,0.21069336000005
-84.98265076,-121.45124817,0.210815430000139
-84.9953537,-121.46814728,0.2109375
-84.97927094,-121.45813751,0.211059570000089
-84.99118805,-121.45044708,0.211181640000177
-84.98425293,-121.45664215,0.211181640000177
-84.98468781,-121.46069336,0.211425780000127
-84.99804688,-121.45028687,0.211547850000215
-84.98430634,-121.4624176,0.211669920000077
-84.98290253,-121.45178986,0.212036140000009
-84.97057343,-121.45231628,0.212158210000098
-84.99593353,-121.45121002,0.212280280000186
-84.99382019,-121.45088196,0.212280280000186
-84.97927094,-121.46304321,0.212280280000186
-84.97399902,-121.45097351,0.212768560000086
-84.97499847,-121.45876312,0.212768560000086
-84.98403931,-121.45664978,0.212768560000086
-84.98461151,-121.46872711,0.212768560000086
-84.97875977,-121.46098328,0.213378910000074
-84.97973633,-121.46385193,0.213500980000163
-84.96948242,-121.45075989,0.213745120000112
-84.9829483,-121.45182037,0.213867190000201
-84.99043274,-121.45304871,0.213989260000062
-84.99414063,-121.46855164,0.214111330000151
-84.98590851,-121.46234131,0.2143554700001
-84.98596954,-121.46485138,0.214477540000189
-84.97367096,-121.45960236,0.21459961000005
-84.98433685,-121.45368958,0.214721680000139
-84.97309875,-121.45632172,0.21484375
-84.98069,-121.46520233,0.214965820000089
-84.97660065,-121.46247864,0.215087890000177
-84.98748016,-121.46172333,0.215087890000177
-84.98584747,-121.45319366,0.215209960000038
-84.98609924,-121.4605484,0.215209960000038
-84.98555756,-121.46708679,0.215209960000038
-84.97560883,-121.46192932,0.215820320000148
-84.98065948,-121.45526123,0.215942390000009
-84.98005676,-121.46356964,0.215942390000009
-84.9861908,-121.46263885,0.216064460000098
-84.97873688,-121.46092224,0.216064460000098
-84.98391724,-121.45317841,0.216308600000048
-84.97293091,-121.45583344,0.216308600000048
-84.98513031,-121.45287323,0.216308600000048
-84.96691895,-121.45259857,0.216552740000225
-84.98423767,-121.46224213,0.216918950000036
-84.97720337,-121.46244812,0.217041020000124
-84.97592926,-121.45938873,0.217285160000074
-84.9956131,-121.45108032,0.217529300000024
-84.97418213,-121.45932007,0.217529300000024
-84.98497772,-121.46907806,0.217529300000024
-84.96299744,-121.45005035,0.217529300000024
-84.99114227,-121.45044708,0.217895510000062
-84.98287964,-121.45437622,0.218017580000151
-84.98674011,-121.4659729,0.218017580000151
-84.97225189,-121.45674133,0.218139650000012
-84.98422241,-121.45974731,0.218139650000012
-84.98329926,-121.45240784,0.2182617200001
-84.97132111,-121.45445251,0.218383790000189
-84.96974945,-121.46047974,0.21850586000005
-84.98239136,-121.45632935,0.21875
-84.98046875,-121.45570374,0.21875
-84.99774933,-121.45159912,0.218872070000089
-84.97415161,-121.45953369,0.218994140000177
-84.98413086,-121.45977783,0.219116210000038
-84.97679901,-121.46193695,0.219116210000038
-84.98821259,-121.45172119,0.219238280000127
-84.98516846,-121.46109772,0.219604500000059
-84.9792099,-121.46353912,0.219726570000148
-84.97299194,-121.46421051,0.220214850000048
-84.96920776,-121.45359039,0.220214850000048
-84.98204041,-121.45008087,0.220336920000136
-84.98503876,-121.46611786,0.220336920000136
-84.98387909,-121.4617691,0.220336920000136
-84.98477173,-121.45677948,0.220581060000086
-84.97434235,-121.46098328,0.220581060000086
-84.97818756,-121.46408081,0.220581060000086
-84.96372986,-121.46510315,0.220581060000086
-84.99108887,-121.45036316,0.220703130000174
-84.99230194,-121.45494843,0.220825200000036
-84.98632813,-121.46272278,0.220825200000036
-84.9798584,-121.4577713,0.221313480000163
-84.98356628,-121.46927643,0.221313480000163
-84.98667145,-121.46826935,0.221435550000024
-84.96779633,-121.46102905,0.221557620000112
-84.96710968,-121.45545197,0.221801760000062
-84.98284149,-121.45970154,0.221923830000151
-84.98844147,-121.45162201,0.222045900000012
-84.98876953,-121.45027161,0.2221679700001
-84.98033142,-121.45023346,0.2221679700001
-84.9773407,-121.46278381,0.222290040000189
-84.96196747,-121.45079041,0.222290040000189
-84.98230743,-121.45063782,0.22241211000005
-84.97556305,-121.46315002,0.22241211000005
-84.9927063,-121.45326996,0.222534180000139
-84.98509216,-121.46340179,0.222778320000089
-84.98094177,-121.46833801,0.222900390000177
-84.99942017,-121.4536438,0.223144530000127
-84.98193359,-121.45588684,0.223510750000059
-84.98892975,-121.46395111,0.223510750000059
-84.95108032,-121.45033264,0.223632820000148
-84.97434998,-121.4593811,0.223754890000009
-84.97187042,-121.45970917,0.223754890000009
-84.99012756,-121.45323944,0.223999030000186
-84.97405243,-121.46054077,0.223999030000186
-84.9834137,-121.46930695,0.224243170000136
-84.98423767,-121.46211243,0.224609380000174
-84.9678421,-121.46678925,0.224609380000174
-84.98262024,-121.45722198,0.224731450000036
-84.96716309,-121.45274353,0.224731450000036
-84.98165894,-121.45076752,0.224731450000036
-84.98078918,-121.46785736,0.224853520000124
-84.98062134,-121.45079041,0.224975590000213
-84.98519135,-121.46620178,0.224975590000213
-84.97653961,-121.46452332,0.225097660000074
-84.99304962,-121.46569061,0.225097660000074
-84.98506165,-121.45266724,0.225219730000163
-84.95642853,-121.45185089,0.225219730000163
-84.98285675,-121.45121765,0.225341800000024
-84.98452759,-121.46840668,0.225463870000112
-84.99376678,-121.45726776,0.225708010000062
-84.98674011,-121.46582794,0.225708010000062
-84.98503113,-121.47171021,0.225708010000062
-84.98468018,-121.46015167,0.225952150000012
-84.99009705,-121.45317078,0.2260742200001
-84.98725891,-121.4691391,0.226440430000139
-84.98751831,-121.47543335,0.2265625
-84.9887085,-121.46975708,0.226928710000038
-84.99841309,-121.45754242,0.227050780000127
-84.96534729,-121.46440125,0.227050780000127
-84.98288727,-121.47081757,0.227294920000077
-84.97303009,-121.45900726,0.227539070000148
-84.98361969,-121.46559906,0.227539070000148
-84.98519135,-121.46071625,0.227661140000009
-84.98728943,-121.46916199,0.227661140000009
-84.98612976,-121.45851898,0.227661140000009
-84.98471069,-121.4541626,0.227783210000098
-84.98615265,-121.46456146,0.227783210000098
-84.98071289,-121.45084381,0.227905280000186
-84.98886871,-121.47480774,0.228027350000048
-84.98970795,-121.45453644,0.228027350000048
-84.98699188,-121.46063232,0.228515630000174
-84.95690155,-121.45168304,0.228759770000124
-84.98818207,-121.46800232,0.228881840000213
-84.98655701,-121.46311188,0.229003910000074
-84.98845673,-121.47103119,0.229370120000112
-84.96856689,-121.45433807,0.229370120000112
-84.98387909,-121.45262146,0.229492190000201
-84.98935699,-121.47561646,0.229492190000201
-84.98818207,-121.46420288,0.229492190000201
-84.97798157,-121.45437622,0.229492190000201
-84.97083282,-121.45585632,0.229614260000062
-84.97763062,-121.4645462,0.229736330000151
-84.97662354,-121.45674896,0.229736330000151
-84.97753143,-121.46729279,0.229858400000012
-84.99591064,-121.45665741,0.2299804700001
-84.9766922,-121.46134186,0.230102540000189
-84.98795319,-121.46981812,0.230102540000189
-84.95015717,-121.47170258,0.230102540000189
-84.98616028,-121.45908356,0.230346680000139
-84.97138977,-121.46549988,0.23046875
-84.96682739,-121.45184326,0.230590820000089
-84.98683929,-121.46340179,0.230834960000038
-84.97724915,-121.4599762,0.231079100000215
-84.9850235,-121.45474243,0.231201170000077
-84.98744202,-121.47525024,0.231567390000009
-84.97875214,-121.46453857,0.231811530000186
-84.98867035,-121.46607208,0.231933600000048
-84.96867371,-121.45246124,0.232055670000136
-84.98577118,-121.45832062,0.232177740000225
-84.9887085,-121.46884155,0.232177740000225
-84.98874664,-121.47160339,0.232299810000086
-84.98317719,-121.45641327,0.232299810000086
-84.99803925,-121.4584198,0.232543950000036
-84.98529053,-121.45202637,0.233032230000163
-84.98465729,-121.45374298,0.233276370000112
-84.98841095,-121.47635651,0.233276370000112
-84.97902679,-121.46484375,0.233520510000062
-84.98309326,-121.47093201,0.234008790000189
-84.98951721,-121.47545624,0.234497070000089
-84.95398712,-121.4553833,0.234497070000089
-84.99172211,-121.47312927,0.234741210000038
-84.99101257,-121.4658432,0.234863280000127
-84.95040131,-121.45934296,0.234863280000127
-84.98851776,-121.46285248,0.234985350000215
-84.98294067,-121.4508667,0.235107420000077
-84.98690033,-121.47400665,0.235107420000077
-84.9773407,-121.45793152,0.235351570000148
-84.98934174,-121.47194672,0.235839850000048
-84.98245239,-121.47016144,0.235839850000048
-84.97981262,-121.46440887,0.235961920000136
-84.98954773,-121.4757309,0.235961920000136
-84.97038269,-121.45465851,0.236206060000086
-84.95137787,-121.46192932,0.236206060000086
-84.98470306,-121.45127869,0.236328130000174
-84.97663879,-121.46443939,0.236328130000174
-84.98229218,-121.46472168,0.236572270000124
-84.98725128,-121.46376801,0.236816410000074
-84.99182129,-121.47592163,0.236938480000163
-84.98581696,-121.47244263,0.236938480000163
-84.97541046,-121.45269775,0.237548830000151
-84.99289703,-121.46517181,0.237548830000151
-84.97914886,-121.46817017,0.237670900000012
-84.97940063,-121.46517944,0.237915040000189
-84.98827362,-121.47366333,0.23803711000005
-84.97608185,-121.46592712,0.23803711000005
-84.99091339,-121.47210693,0.23828125
-84.98597717,-121.46602631,0.238403320000089
-84.99832916,-121.45633698,0.238525390000177
-84.98986053,-121.47277832,0.238525390000177
-84.98082733,-121.45050812,0.238891600000215
-84.96897125,-121.45786285,0.239135750000059
-84.98696899,-121.45783997,0.239135750000059
-84.98307037,-121.45720673,0.239257820000148
-84.972229,-121.45928192,0.239501960000098
-84.98835754,-121.45760345,0.239624030000186
-84.9752121,-121.4648819,0.239624030000186
-84.9870224,-121.46086884,0.239746100000048
-84.98548126,-121.46572113,0.239868170000136
-84.98288727,-121.45262146,0.239868170000136
-84.98896027,-121.46871948,0.239868170000136
-84.97805786,-121.46058655,0.239868170000136
-84.98497772,-121.46840668,0.239990240000225
-84.97257233,-121.46341705,0.239990240000225
-84.9747467,-121.45807648,0.240234380000174
-84.9921875,-121.46549988,0.240356450000036
-84.98969269,-121.47254944,0.240600590000213
-84.99488068,-121.45951843,0.240844730000163
-84.99324799,-121.45780945,0.240966800000024
-84.99804688,-121.45758057,0.241088870000112
-84.98641968,-121.45691681,0.241088870000112
-84.97097015,-121.45554352,0.241088870000112
-84.97503662,-121.46437836,0.241088870000112
-84.98487854,-121.45263672,0.241210940000201
-84.98312378,-121.45284271,0.241210940000201
-84.98313141,-121.4572525,0.241210940000201
-84.97441101,-121.46608734,0.241333010000062
-84.99600983,-121.45516968,0.2416992200001
-84.98735809,-121.45295715,0.2416992200001
-84.99172974,-121.47573853,0.2416992200001
-84.974823,-121.45404816,0.241821290000189
-84.98391724,-121.46659851,0.241821290000189
-84.97580719,-121.45806122,0.241821290000189
-84.99118042,-121.46283722,0.242065430000139
-84.98258209,-121.45378876,0.2421875
-84.98745728,-121.46637726,0.2421875
-84.98317719,-121.45728302,0.243042000000059
-84.99978638,-121.45867157,0.243164070000148
-84.96901703,-121.45240021,0.243286140000009
-84.9888382,-121.46851349,0.243408210000098
-84.98613739,-121.46153259,0.243896490000225
-84.98799133,-121.46996307,0.243896490000225
-84.97087097,-121.45783234,0.243896490000225
-84.97442627,-121.4577179,0.244018560000086
-84.99221039,-121.47380066,0.244140630000174
-84.98802185,-121.46643066,0.244140630000174
-84.98129272,-121.46266174,0.244262700000036
-84.96823883,-121.45636749,0.244262700000036
-84.97799683,-121.4575882,0.244262700000036
-84.98416138,-121.45050812,0.244384770000124
-84.98786163,-121.45905304,0.244506840000213
-84.9894104,-121.4628067,0.244628910000074
-84.99314117,-121.46800995,0.244628910000074
-84.99080658,-121.45674133,0.244873050000024
-84.98377228,-121.45781708,0.245361330000151
-84.98423767,-121.46717072,0.245361330000151
-84.98480988,-121.45668793,0.245483400000012
-84.98580933,-121.45327759,0.245727540000189
-84.99243927,-121.46833038,0.245727540000189
-84.9894104,-121.47511292,0.245971680000139
-84.98432922,-121.45220947,0.24609375
-84.96559906,-121.45243073,0.246337890000177
-84.99382019,-121.4734726,0.246704100000215
-84.97733307,-121.4597168,0.246826170000077
-84.98886108,-121.46003723,0.247070320000148
-84.9927063,-121.4686203,0.247070320000148
-84.98783875,-121.45178986,0.247192390000009
-84.9818573,-121.46627045,0.247436530000186
-84.98789978,-121.47251129,0.247558600000048
-84.95462036,-121.45496368,0.247558600000048
-84.98753357,-121.46002197,0.247680670000136
-84.98854828,-121.46618652,0.247680670000136
-84.99188232,-121.4730835,0.247680670000136
-84.97293091,-121.45227051,0.247680670000136
-84.98401642,-121.45664978,0.247802740000225
-84.97506714,-121.45829773,0.248046880000174
-84.99215698,-121.47611237,0.248168950000036
-84.99118042,-121.46626282,0.248657230000163
-84.99150085,-121.47833252,0.248657230000163
-84.97570038,-121.45903015,0.248657230000163
-84.99226379,-121.45918274,0.248657230000163
-84.9839325,-121.46920776,0.248779300000024
-84.98690796,-121.45690155,0.248901370000112
-84.98129272,-121.46775055,0.248901370000112
-84.98738098,-121.45754242,0.248901370000112
-84.9757309,-121.45433807,0.249145510000062
-84.99326324,-121.4752121,0.249145510000062
-84.98889923,-121.46424866,0.249633790000189
-84.96656036,-121.4510498,0.249633790000189
-84.99150848,-121.47532654,0.24975586000005
-84.99729156,-121.45918274,0.249877930000139
-84.98600006,-121.47213745,0.249877930000139
