"X","Y","Z"
-84.86148834,-121.46540833,0.150146490000225
-84.88012695,-121.46762848,0.150146490000225
-84.86663818,-121.46707153,0.150512700000036
-84.85299683,-121.45546722,0.150634770000124
-84.88858795,-121.45928192,0.151000980000163
-84.88105774,-121.46897125,0.151245120000112
-84.8782196,-121.47325897,0.151245120000112
-84.87088013,-121.47093201,0.151367190000201
-84.94641113,-121.45365143,0.151367190000201
-84.87686157,-121.46513367,0.151489260000062
-84.8873291,-121.46595764,0.151611330000151
-84.88524628,-121.46053314,0.151611330000151
-84.88855743,-121.45677948,0.151733400000012
-84.85617065,-121.46025085,0.151733400000012
-84.87264252,-121.45066833,0.1518554700001
-84.86869049,-121.47026825,0.1518554700001
-84.88198853,-121.46704865,0.15209961000005
-84.86560059,-121.46827698,0.152465820000089
-84.86637115,-121.46671295,0.152587890000177
-84.87844086,-121.46778107,0.152587890000177
-84.87667847,-121.46790314,0.152709960000038
-84.88108063,-121.46298218,0.152832030000127
-84.85150909,-121.45613861,0.152832030000127
-84.86045837,-121.46362305,0.152954100000215
-84.87451172,-121.47325134,0.152954100000215
-84.87095642,-121.47371674,0.152954100000215
-84.8584671,-121.46346283,0.153076170000077
-84.87998962,-121.46740723,0.153076170000077
-84.87645721,-121.47090149,0.153442390000009
-84.8822937,-121.46710205,0.153564460000098
-84.88446808,-121.46174622,0.153808600000048
-84.87808228,-121.47605133,0.153808600000048
-84.88626862,-121.467659,0.153930670000136
-84.86740875,-121.46469879,0.154052740000225
-84.88269043,-121.46537781,0.154052740000225
-84.86588287,-121.46856689,0.154052740000225
-84.8547287,-121.4604187,0.154174810000086
-84.87236023,-121.4756012,0.154174810000086
-84.87624359,-121.46463013,0.154541020000124
-84.85848999,-121.46372986,0.154541020000124
-84.87338257,-121.46264648,0.154663090000213
-84.86231995,-121.46630096,0.154907230000163
-84.89093018,-121.46302795,0.155151370000112
-84.87631226,-121.47041321,0.155151370000112
-84.86591339,-121.46858978,0.155273440000201
-84.85923767,-121.46730804,0.155273440000201
-84.88075256,-121.46499634,0.155395510000062
-84.87506104,-121.47683716,0.155639650000012
-84.86437988,-121.46504211,0.1557617200001
-84.8838501,-121.46398926,0.1557617200001
-84.88140106,-121.46330261,0.155883790000189
-84.86013031,-121.46588898,0.15625
-84.87252045,-121.46160126,0.156372070000089
-84.86392975,-121.46869659,0.156372070000089
-84.87406158,-121.46122742,0.156616210000038
-84.88678741,-121.46524048,0.156738280000127
-84.88189697,-121.46685791,0.156860350000215
-84.88279724,-121.46517944,0.157104500000059
-84.8514328,-121.45896149,0.157348640000009
-84.87618256,-121.47293854,0.157348640000009
-84.86235809,-121.46492004,0.157470710000098
-84.87345123,-121.46620941,0.157592780000186
-84.87532043,-121.47438049,0.157592780000186
-84.88894653,-121.45739746,0.157958990000225
-84.88127899,-121.46582794,0.158325200000036
-84.87320709,-121.45993042,0.158447270000124
-84.87168121,-121.46031189,0.158447270000124
-84.85325623,-121.46163177,0.158447270000124
-84.85038757,-121.4598999,0.158569340000213
-84.86152649,-121.46504211,0.158691410000074
-84.8817215,-121.46362305,0.158813480000163
-84.85842896,-121.46630096,0.158813480000163
-84.87599182,-121.47270203,0.158935550000024
-84.86351776,-121.46740723,0.159057620000112
-84.88439178,-121.46482849,0.159057620000112
-84.87304688,-121.46544647,0.159057620000112
-84.87452698,-121.47860718,0.159057620000112
-84.86045074,-121.46620941,0.159179690000201
-84.85600281,-121.46562195,0.159545900000012
-84.85466766,-121.46652222,0.1596679700001
-84.88110352,-121.46559143,0.16015625
-84.87286377,-121.46193695,0.16015625
-84.87535858,-121.45648956,0.160400390000177
-84.87516022,-121.47115326,0.160400390000177
-84.85649109,-121.46291351,0.160644530000127
-84.87355042,-121.46626282,0.160766600000215
-84.86994171,-121.45468903,0.160888670000077
-84.87586212,-121.47521973,0.160888670000077
-84.87345886,-121.47704315,0.160888670000077
-84.86789703,-121.47434998,0.160888670000077
-84.87180328,-121.45809937,0.161132820000148
-84.85494995,-121.46381378,0.161621100000048
-84.865242,-121.4733963,0.161743170000136
-84.85830688,-121.46582794,0.161743170000136
-84.87130737,-121.45683289,0.161987310000086
-84.85275269,-121.4631424,0.161987310000086
-84.86885834,-121.45613098,0.162109380000174
-84.87728119,-121.47686005,0.162231450000036
-84.87133026,-121.46309662,0.162475590000213
-84.87198639,-121.45128632,0.162963870000112
-84.85842133,-121.46887207,0.163085940000201
-84.86061096,-121.46903992,0.163208010000062
-84.87814331,-121.45448303,0.163330080000151
-84.88768005,-121.46942139,0.163330080000151
-84.8534317,-121.4614563,0.163452150000012
-84.87605286,-121.46098328,0.1635742200001
-84.87336731,-121.46002197,0.163696290000189
-84.8509903,-121.46076965,0.16381836000005
-84.87026978,-121.46128845,0.163940430000139
-84.88343811,-121.46608734,0.1640625
-84.87400818,-121.47763062,0.1640625
-84.87480927,-121.47068024,0.164184570000089
-84.87359619,-121.45529938,0.164306640000177
-84.87316132,-121.4790802,0.164306640000177
-84.88838959,-121.46723938,0.164550780000127
-84.86579132,-121.45140839,0.164550780000127
-84.86312103,-121.47277069,0.164550780000127
-84.86901855,-121.4654007,0.164794920000077
-84.87766266,-121.46338654,0.165039070000148
-84.87915802,-121.47956085,0.165161140000009
-84.87162018,-121.45739746,0.165283210000098
-84.86985016,-121.4575119,0.165283210000098
-84.87561798,-121.48002625,0.165283210000098
-84.87490082,-121.47647095,0.165405280000186
-84.86876678,-121.48100281,0.165405280000186
-84.85127258,-121.4610672,0.165527350000048
-84.87499237,-121.48174286,0.165527350000048
-84.85977936,-121.47102356,0.165649420000136
-84.86940002,-121.46024323,0.165771490000225
-84.86995697,-121.45137787,0.165893560000086
-84.873703,-121.46009064,0.166381840000213
-84.87039185,-121.48314667,0.166381840000213
-84.86652374,-121.45700073,0.166503910000074
-84.88332367,-121.4686203,0.166503910000074
-84.86847687,-121.45030975,0.166625980000163
-84.88690948,-121.47090912,0.166625980000163
-84.87564087,-121.48030853,0.166748050000024
-84.87669373,-121.47337341,0.166870120000112
-84.87181854,-121.45516205,0.166992190000201
-84.88420105,-121.46418762,0.167236330000151
-84.86699677,-121.45304871,0.167236330000151
-84.86184692,-121.47396851,0.167236330000151
-84.864151,-121.47592163,0.167358400000012
-84.8742218,-121.46366119,0.167846680000139
-84.88382721,-121.46917725,0.16796875
-84.876091,-121.47836304,0.168334960000038
-84.85408783,-121.46785736,0.168579100000215
-84.8744278,-121.48075104,0.169067390000009
-84.87155151,-121.48227692,0.169067390000009
-84.87198639,-121.46376038,0.169189460000098
-84.86199951,-121.47927094,0.169189460000098
-84.86669922,-121.48339844,0.169189460000098
-84.87020874,-121.45001984,0.169555670000136
-84.87602997,-121.46357727,0.169555670000136
-84.88720703,-121.47148132,0.169555670000136
-84.85214996,-121.47073364,0.169677740000225
-84.87159729,-121.48504639,0.169799810000086
-84.8536911,-121.47035217,0.169799810000086
-84.87539673,-121.46880341,0.170166020000124
-84.87065125,-121.47821045,0.170166020000124
-84.86186981,-121.46022034,0.170654300000024
-84.87374878,-121.477211,0.170654300000024
-84.8744812,-121.48078156,0.171020510000062
-84.85932922,-121.47884369,0.171020510000062
-84.85040283,-121.46810913,0.171508790000189
-84.8794632,-121.46890259,0.172119140000177
-84.86051941,-121.48020172,0.172241210000038
-84.87728882,-121.46797943,0.172485350000215
-84.87184143,-121.47683716,0.172973640000009
-84.8766098,-121.47045135,0.173217780000186
-84.87142181,-121.47907257,0.173217780000186
-84.86031342,-121.46884155,0.173339850000048
-84.86123657,-121.47087097,0.173461920000136
-84.86753082,-121.48729706,0.173583990000225
-84.87397003,-121.46925354,0.174072270000124
-84.87750244,-121.45510101,0.174316410000074
-84.85980988,-121.46853638,0.174316410000074
-84.86264038,-121.48592377,0.174316410000074
-84.86531067,-121.48712921,0.174438480000163
-84.85736084,-121.46669769,0.174804690000201
-84.87674713,-121.47901154,0.174804690000201
-84.87818909,-121.46382904,0.174926760000062
-84.8744278,-121.46704102,0.175048830000151
-84.86959839,-121.490242,0.175048830000151
-84.86972809,-121.48222351,0.175170900000012
-84.87410736,-121.47781372,0.175659180000139
-84.85595703,-121.48214722,0.17578125
-84.86506653,-121.45990753,0.175903320000089
-84.86889648,-121.48667908,0.175903320000089
-84.85913086,-121.4834137,0.175903320000089
-84.87713623,-121.47128296,0.176147460000038
-84.86402893,-121.48504639,0.176269530000127
-84.87251282,-121.46967316,0.176513670000077
-84.87477875,-121.47612762,0.176879890000009
-84.85756683,-121.48455811,0.177246100000048
-84.87265778,-121.47772217,0.177368170000136
-84.872612,-121.4752121,0.177490240000225
-84.85357666,-121.48123932,0.177612310000086
-84.86824799,-121.48290253,0.177734380000174
-84.85738373,-121.48078918,0.177856450000036
-84.87640381,-121.47827911,0.178100590000213
-84.86408234,-121.4850769,0.178100590000213
-84.86186218,-121.48465729,0.178100590000213
-84.87587738,-121.46896362,0.178222660000074
-84.86975861,-121.47675323,0.178222660000074
-84.87487793,-121.47866058,0.178344730000163
-84.87837219,-121.46941376,0.178588870000112
-84.87075806,-121.45298767,0.178710940000201
-84.87547302,-121.47119141,0.178710940000201
-84.85694885,-121.48352814,0.178833010000062
-84.86102295,-121.48610687,0.179077150000012
-84.87158966,-121.47615814,0.1791992200001
-84.866539,-121.4595871,0.17944336000005
-84.87193298,-121.45500183,0.179809570000089
-84.85765839,-121.47104645,0.179931640000177
-84.8614502,-121.48415375,0.179931640000177
-84.87358856,-121.47657776,0.180175780000127
-84.85771942,-121.48712158,0.180175780000127
-84.86766815,-121.48188782,0.180542000000059
-84.87078094,-121.48062897,0.180664070000148
-84.85971069,-121.48428345,0.180664070000148
-84.8547287,-121.46867371,0.180786140000009
-84.86618805,-121.4620285,0.181030280000186
-84.85507965,-121.48592377,0.181030280000186
-84.87806702,-121.48071289,0.181152350000048
-84.86128235,-121.48365021,0.181152350000048
-84.85813904,-121.47126007,0.181396490000225
-84.87580872,-121.47451782,0.181640630000174
-84.85980225,-121.47380829,0.181762700000036
-84.86390686,-121.45491791,0.182006840000213
-84.87082672,-121.48065948,0.182128910000074
-84.85684204,-121.48307037,0.182250980000163
-84.86132813,-121.48667908,0.182373050000024
-84.86772919,-121.48191833,0.182495120000112
-84.85901642,-121.47451019,0.182617190000201
-84.85221863,-121.48773193,0.182617190000201
-84.87236023,-121.47727203,0.182739260000062
-84.86136627,-121.48970795,0.182983400000012
-84.87261963,-121.4805603,0.1831054700001
-84.85668945,-121.47666168,0.18334961000005
-84.87538147,-121.47100067,0.183471680000139
-84.85758209,-121.48690796,0.183471680000139
-84.85243225,-121.48223877,0.183471680000139
-84.87828827,-121.46923065,0.18359375
-84.85494232,-121.4887085,0.183715820000089
-84.86681366,-121.45717621,0.184326170000077
-84.86650848,-121.4886322,0.184448250000059
-84.86624908,-121.48233795,0.184570320000148
-84.87130737,-121.47872925,0.184692390000009
-84.86186218,-121.49051666,0.184814460000098
-84.85875702,-121.48853302,0.185180670000136
-84.86712646,-121.47789764,0.185302740000225
-84.85455322,-121.48795319,0.185302740000225
-84.87268066,-121.48085785,0.185913090000213
-84.86630249,-121.48236084,0.186035160000074
-84.87609863,-121.46933746,0.186157230000163
-84.86586761,-121.48784637,0.186157230000163
-84.86553192,-121.49234009,0.186401370000112
-84.8628006,-121.4567337,0.186523440000201
-84.87666321,-121.47841644,0.186523440000201
-84.86061096,-121.49120331,0.186523440000201
-84.86010742,-121.48790741,0.186645510000062
-84.86740875,-121.47820282,0.1870117200001
-84.86895752,-121.47782898,0.1875
-84.85655212,-121.47950745,0.187988280000127
-84.86676788,-121.46507263,0.188110350000215
-84.86522675,-121.48081207,0.188110350000215
-84.8625412,-121.45641327,0.188476570000148
-84.85150909,-121.48651123,0.188842780000186
-84.87490845,-121.47280121,0.188964850000048
-84.87212372,-121.4798584,0.189331060000086
-84.85825348,-121.49031067,0.189331060000086
-84.85533905,-121.48908234,0.189453130000174
-84.86995697,-121.48194885,0.189697270000124
-84.86136627,-121.49230957,0.189697270000124
-84.87297058,-121.47567749,0.190185550000024
-84.87241364,-121.48291016,0.190307620000112
-84.86031342,-121.49324036,0.190307620000112
-84.85594177,-121.48190308,0.190795900000012
-84.86470032,-121.48557281,0.191040040000189
-84.85002136,-121.48391724,0.191040040000189
-84.85584259,-121.48989105,0.19116211000005
-84.87683868,-121.48126984,0.191528320000089
-84.87037659,-121.47724915,0.191528320000089
-84.85408783,-121.49002075,0.192016600000215
-84.85549927,-121.47158051,0.192138670000077
-84.87307739,-121.47821808,0.192138670000077
-84.86385345,-121.4872818,0.192260750000059
-84.86856079,-121.46222687,0.192504890000009
-84.85900879,-121.46341705,0.192749030000186
-84.86592865,-121.49297333,0.192871100000048
-84.85211945,-121.48988342,0.192871100000048
-84.87159729,-121.48162842,0.193359380000174
-84.85682678,-121.49401855,0.193359380000174
-84.86435699,-121.48784637,0.193969730000163
-84.87246704,-121.47720337,0.194213870000112
-84.86193085,-121.49017334,0.194213870000112
-84.86296082,-121.4644928,0.194335940000201
-84.85939789,-121.46636963,0.194580080000151
-84.85664368,-121.49376678,0.194580080000151
-84.86396027,-121.49008179,0.194702150000012
-84.85736847,-121.48281097,0.1948242200001
-84.8531723,-121.48091125,0.195190430000139
-84.86044312,-121.49356842,0.1953125
-84.86444092,-121.49388885,0.195678710000038
-84.92411804,-121.45240021,0.195678710000038
-84.9209671,-121.45043945,0.195678710000038
-84.8529129,-121.49073792,0.196044920000077
-84.86312103,-121.48853302,0.196289070000148
-84.85716248,-121.49433899,0.196655280000186
-84.85636902,-121.48197174,0.196777350000048
-84.87528229,-121.48097229,0.197021490000225
-84.85646057,-121.47119904,0.197143560000086
-84.85092163,-121.47226715,0.197143560000086
-84.86273956,-121.49404144,0.197631840000213
-84.85372925,-121.47032928,0.197875980000163
-84.86930847,-121.4807663,0.198242190000201
-84.86295319,-121.48829651,0.198242190000201
-84.8529892,-121.49378204,0.198242190000201
-84.85697937,-121.47016144,0.198608400000012
-84.86490631,-121.4826889,0.198852540000189
-84.86537933,-121.48648834,0.19897461000005
-84.85875702,-121.49098969,0.199096680000139
-84.93148041,-121.45375061,0.199340820000089
-84.86032104,-121.4903717,0.199584960000038
-84.85620117,-121.48610687,0.199951170000077
-84.85257721,-121.4932785,0.199951170000077
-84.86872101,-121.46221924,0.200561530000186
-84.85782623,-121.48989868,0.200561530000186
-84.87402344,-121.4824295,0.200561530000186
-84.86496735,-121.48599243,0.200805670000136
-84.8625412,-121.48503876,0.200805670000136
-84.86077118,-121.48841858,0.201049810000086
-84.85176849,-121.49447632,0.201049810000086
-84.87097168,-121.48320007,0.201171880000174
-84.85501862,-121.48822021,0.201293950000036
-84.85761261,-121.48834991,0.201782230000163
-84.85336304,-121.47268677,0.201904300000024
-84.86239624,-121.48731232,0.202026370000112
-84.93002319,-121.45420074,0.202270510000062
-84.8572998,-121.48841858,0.202392580000151
-84.91632843,-121.45442963,0.202758790000189
-84.86215973,-121.48429108,0.20288086000005
-84.86128998,-121.48899078,0.20288086000005
-84.9469223,-121.4520874,0.20288086000005
-84.85439301,-121.48744202,0.203002930000139
-84.85822296,-121.49001312,0.203613280000127
-84.85331726,-121.4886322,0.203857420000077
-84.85237885,-121.47910309,0.204101570000148
-84.86306763,-121.48587799,0.204101570000148
-84.85282898,-121.48061371,0.204223640000009
-84.85294342,-121.49035645,0.204345710000098
-84.85135651,-121.47955322,0.204711920000136
-84.85250092,-121.49308777,0.204711920000136
-84.86576843,-121.48384857,0.205078130000174
-84.85852051,-121.4900589,0.205322270000124
-84.92803192,-121.45449829,0.205322270000124
-84.92211914,-121.45278931,0.205444340000213
-84.86504364,-121.46594238,0.205566410000074
-84.87133026,-121.48355103,0.205566410000074
-84.86399841,-121.48448181,0.206054690000201
-84.88324738,-121.45182037,0.206298830000151
-84.85164642,-121.49179077,0.2065429700001
-84.85636902,-121.49568176,0.206909180000139
-84.85021973,-121.48293304,0.207275390000177
-84.93865204,-121.45147705,0.207275390000177
-84.86585236,-121.48715973,0.207763670000077
-84.85984802,-121.48693848,0.207885750000059
-84.86165619,-121.48632813,0.208129890000009
-84.8704834,-121.47950745,0.208496100000048
-84.8546524,-121.49281311,0.208740240000225
-84.9471283,-121.46717072,0.208984380000174
-84.8621521,-121.49015045,0.209228520000124
-84.85906982,-121.49417114,0.209350590000213
-84.94833374,-121.45166779,0.209716800000024
-84.85040283,-121.48410034,0.209838870000112
-84.8615036,-121.48584747,0.209838870000112
-84.86662292,-121.48800659,0.2104492200001
-84.85915375,-121.4969635,0.2104492200001
-84.85392761,-121.49095154,0.210571290000189
-84.93453217,-121.45265961,0.210815430000139
-84.8677063,-121.46661377,0.2109375
-84.8511734,-121.49333191,0.211059570000089
-84.85652924,-121.49550629,0.211669920000077
-84.85305786,-121.48612213,0.211914070000148
-84.86064148,-121.48480988,0.211914070000148
-84.86309814,-121.48549652,0.212036140000009
-84.85778809,-121.46349335,0.212158210000098
-84.85247803,-121.4730835,0.212158210000098
-84.93966675,-121.47228241,0.212280280000186
-84.85340118,-121.47534943,0.212524420000136
-84.86206818,-121.4924469,0.212524420000136
-84.85041046,-121.49756622,0.213500980000163
-84.86181641,-121.48642731,0.213623050000024
-84.93810272,-121.45143127,0.213623050000024
-84.85682678,-121.49907684,0.213989260000062
-84.93865967,-121.47239685,0.215087890000177
-84.86631012,-121.48755646,0.215454100000215
-84.85108948,-121.49169922,0.215576170000077
-84.86026764,-121.47071838,0.215698250000059
-84.8562088,-121.49806213,0.215820320000148
-84.93979645,-121.45105743,0.216064460000098
-84.86019135,-121.49236298,0.216552740000225
-84.85198975,-121.48667908,0.216918950000036
-84.86505127,-121.4882431,0.217041020000124
-84.85738373,-121.49967194,0.217041020000124
-84.86131287,-121.49121094,0.217285160000074
-84.85388184,-121.49964905,0.217407230000163
-84.86270905,-121.49609375,0.217895510000062
-84.8571701,-121.49640656,0.2182617200001
-84.91767883,-121.45381927,0.2182617200001
-84.85408783,-121.49742889,0.218383790000189
-84.86418915,-121.48693848,0.21850586000005
-84.86195374,-121.4719162,0.21875
-84.85006714,-121.47554016,0.21875
-84.86245728,-121.49307251,0.21875
-84.86244965,-121.48706055,0.219360350000215
-84.85743713,-121.49669647,0.219604500000059
-84.86602783,-121.48960876,0.219726570000148
-84.86869812,-121.49082184,0.219848640000009
-84.86338043,-121.48866272,0.221069340000213
-84.85839844,-121.49780273,0.221069340000213
-84.8514328,-121.47096252,0.22241211000005
-84.85665131,-121.49543762,0.223388670000077
-84.85469055,-121.49804688,0.223388670000077
-84.86434174,-121.4870224,0.223510750000059
-84.9307785,-121.45330811,0.223510750000059
-84.89562225,-121.45977783,0.223876960000098
-84.85800171,-121.49456024,0.224121100000048
-84.85603333,-121.49741364,0.224365240000225
-84.86418152,-121.48953247,0.224731450000036
-84.86708069,-121.4910202,0.224853520000124
-84.86180115,-121.49762726,0.224975590000213
-84.93367004,-121.45246887,0.225830080000151
-84.85392761,-121.49928284,0.2260742200001
-84.85012817,-121.47103882,0.226440430000139
-84.85500336,-121.49861908,0.2265625
-84.85080719,-121.49778748,0.226806640000177
-84.93540955,-121.47296906,0.227294920000077
-84.86248016,-121.48693848,0.228027350000048
-84.85414886,-121.49732208,0.228149420000136
-84.9431076,-121.45271301,0.228149420000136
-84.85044098,-121.49978638,0.228271490000225
-84.86994171,-121.45498657,0.228759770000124
-84.8531189,-121.49800873,0.229125980000163
-84.87918091,-121.46446991,0.229125980000163
-84.93412781,-121.45230103,0.229370120000112
-84.86728668,-121.4557724,0.229492190000201
-84.85286713,-121.49524689,0.23022461000005
-84.8518219,-121.49617767,0.230957030000127
-84.85427094,-121.49713135,0.231689460000098
-84.8604126,-121.4956131,0.231811530000186
-84.85913849,-121.49601746,0.232299810000086
-84.93676758,-121.45427704,0.232666020000124
-84.94450378,-121.45487976,0.233154300000024
-84.87284088,-121.46605682,0.233154300000024
-84.85935974,-121.4937973,0.233520510000062
-84.85851288,-121.49498749,0.233520510000062
-84.85720825,-121.49590302,0.234375
-84.85569,-121.49929047,0.234375
-84.8525238,-121.47160339,0.234741210000038
-84.94008636,-121.45030975,0.234863280000127
-84.85675812,-121.49262238,0.235717780000186
-84.86010742,-121.49163818,0.236328130000174
-84.8598938,-121.49463654,0.236816410000074
-84.85217285,-121.49404144,0.237060550000024
-84.8529129,-121.497612,0.237426760000062
-84.91693115,-121.4598465,0.2377929700001
-84.93670654,-121.45137024,0.23803711000005
-84.85356903,-121.49591827,0.238159180000139
-84.93047333,-121.45886993,0.238159180000139
-84.87319946,-121.45139313,0.238403320000089
-84.85620117,-121.49436951,0.238403320000089
-84.87786865,-121.46450043,0.238403320000089
-84.93366241,-121.46102905,0.240478520000124
-84.8538208,-121.49372101,0.240722660000074
-84.85150146,-121.4778595,0.241088870000112
-84.9258728,-121.4601593,0.241210940000201
-84.85585785,-121.49363708,0.2416992200001
-84.85192108,-121.49909973,0.2416992200001
-84.92350769,-121.46668243,0.241821290000189
-84.90940094,-121.4618988,0.242309570000089
-84.85395813,-121.49902344,0.242431640000177
-84.85858154,-121.49762726,0.242553710000038
-84.9413681,-121.45879364,0.242797850000215
-84.87299347,-121.45176697,0.242919920000077
-84.87016296,-121.46154022,0.243286140000009
-84.85360718,-121.47360992,0.243286140000009
-84.85302734,-121.49520111,0.243530280000186
-84.91854858,-121.45915985,0.243652350000048
-84.91290283,-121.47264862,0.244384770000124
-84.85787964,-121.47270203,0.244506840000213
-84.85089111,-121.49755859,0.244995120000112
-84.91179657,-121.46392059,0.2456054700001
-84.92188263,-121.45519257,0.245971680000139
-84.9169693,-121.46855164,0.245971680000139
-84.93965912,-121.45926666,0.246215820000089
-84.93208313,-121.45812988,0.246459960000038
-84.92443848,-121.46636963,0.247558600000048
-84.90828705,-121.47392273,0.247802740000225
-84.85762024,-121.49938965,0.248291020000124
-84.89412689,-121.46607208,0.2495117200001
