"X","Y","Z"
-84.96350861,-121.36084747,0.255249030000186
-84.96407318,-121.38572693,0.255249030000186
-84.95423126,-121.43460846,0.255249030000186
-84.96401978,-121.36929321,0.255371100000048
-84.98325348,-121.38318634,0.255493170000136
-84.9807663,-121.39212799,0.255493170000136
-84.99237061,-121.39022827,0.255615240000225
-84.96357727,-121.41454315,0.255615240000225
-84.96057892,-121.39524078,0.255737310000086
-84.97284698,-121.37126923,0.255859380000174
-84.97090912,-121.37875366,0.255981450000036
-84.96053314,-121.3832016,0.255981450000036
-84.97670746,-121.42334747,0.255981450000036
-84.97673798,-121.42610931,0.255981450000036
-84.96772766,-121.40659332,0.256103520000124
-84.96784973,-121.42115021,0.256103520000124
-84.974823,-121.37213135,0.256225590000213
-84.97406769,-121.38652802,0.256225590000213
-84.98082733,-121.38262939,0.256347660000074
-84.97525024,-121.3779068,0.256347660000074
-84.9615097,-121.39331818,0.256469730000163
-84.96044922,-121.43888092,0.256469730000163
-84.95478058,-121.39674377,0.256469730000163
-84.9817276,-121.44608307,0.256713870000112
-84.96021271,-121.37436676,0.256835940000201
-84.9883194,-121.44898987,0.256835940000201
-84.96440125,-121.39505768,0.257080080000151
-84.9524765,-121.43524933,0.257080080000151
-84.96920013,-121.38189697,0.257202150000012
-84.96788788,-121.3825531,0.257202150000012
-84.96994019,-121.3646698,0.2573242200001
-84.96649933,-121.41329193,0.257446290000189
-84.95134735,-121.42739868,0.257446290000189
-84.9691391,-121.40847778,0.257690430000139
-84.96678925,-121.41932678,0.257690430000139
-84.96177673,-121.39360809,0.257934570000089
-84.97190857,-121.38288116,0.258056640000177
-84.96614075,-121.39360046,0.258056640000177
-84.95783234,-121.40258789,0.258178710000038
-84.97251892,-121.41677856,0.258300780000127
-84.96463013,-121.38632202,0.258544920000077
-84.96511841,-121.37291718,0.258544920000077
-84.98391724,-121.38777924,0.258667000000059
-84.97013855,-121.38324738,0.258667000000059
-84.96373749,-121.3912735,0.258667000000059
-84.97074127,-121.36981201,0.258789070000148
-84.95752716,-121.36769867,0.258789070000148
-84.96508789,-121.35801697,0.258789070000148
-84.96559906,-121.39968872,0.258789070000148
-84.95166016,-121.43045044,0.258911140000009
-84.96611023,-121.41252899,0.259033210000098
-84.96282196,-121.38527679,0.259033210000098
-84.98867035,-121.38728333,0.259155280000186
-84.9587326,-121.40418243,0.259155280000186
-84.97162628,-121.41246033,0.259155280000186
-84.97013092,-121.41560364,0.259155280000186
-84.97802734,-121.43979645,0.259155280000186
-84.95864868,-121.37306976,0.259277350000048
-84.98136902,-121.38903809,0.259399420000136
-84.95760345,-121.35207367,0.259399420000136
-84.98383331,-121.44904327,0.259399420000136
-84.95294189,-121.42704773,0.259399420000136
-84.97405243,-121.37471771,0.259521490000225
-84.95661163,-121.44438934,0.259521490000225
-84.98510742,-121.3910675,0.259765630000174
-84.9644165,-121.38632202,0.259765630000174
-84.97236633,-121.41629791,0.260009770000124
-84.96485138,-121.41620636,0.260009770000124
-84.9580307,-121.365242,0.260131840000213
-84.96878052,-121.40447998,0.260131840000213
-84.958992,-121.43656158,0.260131840000213
-84.97303009,-121.41435242,0.260253910000074
-84.95731354,-121.36051941,0.260498050000024
-84.95503235,-121.35204315,0.260620120000112
-84.95976257,-121.44615936,0.260620120000112
-84.97399902,-121.38609314,0.260742190000201
-84.95012665,-121.43135834,0.260742190000201
-84.96929169,-121.41430664,0.260864260000062
-84.98561096,-121.38861847,0.260986330000151
-84.95723724,-121.40158081,0.260986330000151
-84.97280884,-121.3554306,0.260986330000151
-84.96602631,-121.36963654,0.260986330000151
-84.96099854,-121.37097168,0.2612304700001
-84.96555328,-121.38517761,0.2612304700001
-84.96713257,-121.4196701,0.261352540000189
-84.96788025,-121.40041351,0.26147461000005
-84.98233032,-121.44669342,0.26147461000005
-84.95574951,-121.43682861,0.26147461000005
-84.97020721,-121.36367798,0.261596680000139
-84.9671936,-121.36634827,0.261596680000139
-84.96057129,-121.40409851,0.261596680000139
-84.98104858,-121.39003754,0.26171875
-84.96336365,-121.44872284,0.26171875
-84.971138,-121.38462067,0.261840820000089
-84.96669006,-121.38424683,0.261840820000089
-84.97934723,-121.37940216,0.261962890000177
-84.97415924,-121.3740921,0.261962890000177
-84.95835876,-121.37301636,0.261962890000177
-84.97361755,-121.42996979,0.261962890000177
-84.9881897,-121.38880157,0.262207030000127
-84.9569397,-121.35388947,0.262207030000127
-84.96748352,-121.35408783,0.262207030000127
-84.95951843,-121.40503693,0.262329100000215
-84.96193695,-121.37367249,0.262329100000215
-84.96842194,-121.41000366,0.262451170000077
-84.96588135,-121.39125061,0.262695320000148
-84.9828186,-121.44725037,0.262695320000148
-84.9580307,-121.44355011,0.262695320000148
-84.98629761,-121.38584137,0.262817390000009
-84.96482086,-121.3984375,0.262817390000009
-84.95861816,-121.3653717,0.262817390000009
-84.95709991,-121.436203,0.262939460000098
-84.96793365,-121.4004364,0.263183600000048
-84.98261261,-121.44373322,0.263305670000136
-84.96398163,-121.40615845,0.263427740000225
-84.97138214,-121.42378998,0.263427740000225
-84.98075867,-121.3503418,0.263427740000225
-84.97186279,-121.42733765,0.263549810000086
-84.97052002,-121.38359833,0.263671880000174
-84.95413208,-121.35517883,0.263793950000036
-84.96485901,-121.40145874,0.263793950000036
-84.98322296,-121.38951111,0.263916020000124
-84.97679901,-121.43174744,0.263916020000124
-84.96720123,-121.38134003,0.264038090000213
-84.96047211,-121.40638733,0.264038090000213
-84.96822357,-121.36917114,0.264038090000213
-84.97921753,-121.38009644,0.264282230000163
-84.97350311,-121.37592316,0.264282230000163
-84.96009827,-121.37409973,0.264282230000163
-84.9568634,-121.39807892,0.264282230000163
-84.97387695,-121.38587952,0.264526370000112
-84.96501923,-121.38694,0.264526370000112
-84.983078,-121.44152832,0.264526370000112
-84.98309326,-121.44454193,0.264526370000112
-84.96401215,-121.40943909,0.264648440000201
-84.97396088,-121.36711884,0.264770510000062
-84.9580307,-121.37400055,0.264770510000062
-84.96498871,-121.38417816,0.264770510000062
-84.97699738,-121.38053131,0.265014650000012
-84.96964264,-121.41790771,0.2651367200001
-84.9666214,-121.39560699,0.265258790000189
-84.97299194,-121.38156128,0.26538086000005
-84.96179962,-121.39949036,0.26538086000005
-84.97454834,-121.42582703,0.265502930000139
-84.95874023,-121.35917664,0.265747070000089
-84.99136353,-121.39311218,0.265991210000038
-84.96768188,-121.37915039,0.265991210000038
-84.96156311,-121.39646912,0.265991210000038
-84.98155212,-121.43917847,0.266113280000127
-84.95983124,-121.39935303,0.266235350000215
-84.9888382,-121.38594818,0.266357420000077
-84.97750092,-121.38845062,0.266357420000077
-84.96414185,-121.38288879,0.266357420000077
-84.97077179,-121.36898804,0.266479500000059
-84.97486115,-121.37888336,0.266479500000059
-84.97862244,-121.43193054,0.266601570000148
-84.95317078,-121.35807037,0.266845710000098
-84.98310852,-121.43881226,0.266845710000098
-84.97122192,-121.38278961,0.266845710000098
-84.95995331,-121.38919067,0.266845710000098
-84.98336029,-121.4420929,0.266967780000186
-84.95600891,-121.36437225,0.267089850000048
-84.96537018,-121.39629364,0.267089850000048
-84.96930695,-121.36569214,0.267333990000225
-84.96071625,-121.39492035,0.267456060000086
-84.9642868,-121.39746094,0.267578130000174
-84.96115875,-121.37648773,0.267578130000174
-84.96826935,-121.39476776,0.267822270000124
-84.97458649,-121.37146759,0.267944340000213
-84.95218658,-121.3533783,0.267944340000213
-84.96321106,-121.37075806,0.267944340000213
-84.95966339,-121.39910889,0.267944340000213
-84.98117065,-121.44168091,0.268066410000074
-84.95955658,-121.36508179,0.268066410000074
-84.98516083,-121.44200134,0.268188480000163
-84.96794891,-121.36286926,0.268310550000024
-84.9731369,-121.36945343,0.268310550000024
-84.97177124,-121.38226318,0.268310550000024
-84.96446228,-121.37967682,0.268676760000062
-84.9598999,-121.35864258,0.268920900000012
-84.9641037,-121.3972168,0.2690429700001
-84.98119354,-121.43869781,0.269409180000139
-84.99037933,-121.38857269,0.26953125
-84.97540283,-121.35449219,0.269775390000177
-84.95896149,-121.37744904,0.269897460000038
-84.96421814,-121.37367249,0.270019530000127
-84.97598267,-121.38362122,0.270019530000127
-84.97444916,-121.38400269,0.270019530000127
-84.96562195,-121.38781738,0.270019530000127
-84.9798584,-121.43032074,0.270019530000127
-84.95240784,-121.36064911,0.270141600000215
-84.9617691,-121.37297058,0.270141600000215
-84.96430206,-121.39198303,0.270141600000215
-84.96524811,-121.39582062,0.270141600000215
-84.98365021,-121.43965149,0.270263670000077
-84.95417023,-121.36347961,0.270263670000077
-84.97445679,-121.37216949,0.270385750000059
-84.96064758,-121.37651825,0.270385750000059
-84.95717621,-121.37625885,0.270629890000009
-84.97701263,-121.43486786,0.270629890000009
-84.96806335,-121.36965179,0.270751960000098
-84.96124268,-121.39601135,0.270751960000098
-84.96025085,-121.37989044,0.270751960000098
-84.98345947,-121.39582825,0.270874030000186
-84.96417999,-121.39700317,0.270874030000186
-84.96891785,-121.41342163,0.270874030000186
-84.96028137,-121.37278748,0.270996100000048
-84.96356964,-121.39376068,0.270996100000048
-84.98240662,-121.44634247,0.271240240000225
-84.96602631,-121.36025238,0.271362310000086
-84.95121765,-121.35624695,0.271484380000174
-84.97924042,-121.43556213,0.271484380000174
-84.96315002,-121.37184906,0.271606450000036
-84.97988892,-121.43060303,0.271606450000036
-84.96412659,-121.39148712,0.271728520000124
-84.96376801,-121.40249634,0.271728520000124
-84.96688843,-121.36653137,0.271850590000213
-84.96434021,-121.366539,0.271850590000213
-84.9801712,-121.43991089,0.271850590000213
-84.97553253,-121.36753845,0.272094730000163
-84.95588684,-121.36591339,0.272094730000163
-84.95826721,-121.36721039,0.272338870000112
-84.96894836,-121.41043854,0.272460940000201
-84.96195221,-121.39083099,0.272460940000201
-84.96356201,-121.39597321,0.272583010000062
-84.98013306,-121.43440247,0.272705080000151
-84.96637726,-121.38893127,0.2729492200001
-84.96243286,-121.36698151,0.2729492200001
-84.99533081,-121.39533234,0.273071290000189
-84.95173645,-121.36245728,0.27319336000005
-84.97518921,-121.37700653,0.273315430000139
-84.96508026,-121.39283752,0.2734375
-84.97973633,-121.43010712,0.273559570000089
-84.96266174,-121.39190674,0.273925780000127
-84.97547913,-121.42050171,0.273925780000127
-84.96820831,-121.39160156,0.274047850000215
-84.96598816,-121.39116669,0.274169920000077
-84.97531128,-121.42926788,0.274169920000077
-84.96594238,-121.38539886,0.274292000000059
-84.96040344,-121.37293243,0.274414070000148
-84.96588135,-121.40545654,0.274414070000148
-84.97997284,-121.43390656,0.274536140000009
-84.9746933,-121.43099213,0.274658210000098
-84.97505188,-121.3690567,0.274902350000048
-84.95124817,-121.37246704,0.274902350000048
-84.98200226,-121.43382263,0.274902350000048
-84.98027802,-121.44297028,0.274902350000048
-84.95974731,-121.36488342,0.274902350000048
-84.97844696,-121.43430328,0.275024420000136
-84.95526886,-121.43547821,0.275024420000136
-84.95218658,-121.36102295,0.275146490000225
-84.97762299,-121.4417572,0.275146490000225
-84.96913147,-121.39318848,0.275268560000086
-84.960289,-121.39073944,0.275268560000086
-84.97895813,-121.43760681,0.275512700000036
-84.95667267,-121.37770081,0.275634770000124
-84.9797821,-121.3563385,0.275634770000124
-84.95947266,-121.3660965,0.275756840000213
-84.97193146,-121.3724823,0.275878910000074
-84.97499847,-121.37745667,0.275878910000074
-84.96714783,-121.39304352,0.275878910000074
-84.96156311,-121.3875885,0.275878910000074
-84.97598267,-121.42131805,0.275878910000074
-84.95986938,-121.3734436,0.276000980000163
-84.96668243,-121.3862381,0.276000980000163
-84.97544861,-121.38450623,0.276123050000024
-84.96691895,-121.36559296,0.276123050000024
-84.97869873,-121.43157196,0.276123050000024
-84.95526886,-121.36226654,0.276245120000112
-84.96050262,-121.38851166,0.276367190000201
-84.98249817,-121.43438721,0.276367190000201
-84.98010254,-121.43946838,0.276611330000151
-84.96546173,-121.40219879,0.276733400000012
-84.95014191,-121.35984039,0.2768554700001
-84.97084808,-121.3717804,0.2768554700001
-84.97357941,-121.36698151,0.276977540000189
-84.9765625,-121.43994904,0.276977540000189
-84.99212646,-121.35301208,0.27709961000005
-84.97579193,-121.37391663,0.277221680000139
-84.97650146,-121.4311676,0.277221680000139
-84.97605896,-121.38996124,0.27734375
-84.96853638,-121.391922,0.27734375
-84.96859741,-121.40721893,0.27734375
-84.97563934,-121.43586731,0.27734375
-84.95259857,-121.37539673,0.277465820000089
-84.96180725,-121.37534332,0.277587890000177
-84.97602844,-121.42134857,0.277587890000177
-84.98124695,-121.44132996,0.277832030000127
-84.96089172,-121.36984253,0.277954100000215
-84.98056793,-121.43727112,0.277954100000215
-84.96360779,-121.38150787,0.278076170000077
-84.96334839,-121.35388947,0.278198250000059
-84.96456146,-121.38861084,0.278198250000059
-84.97154236,-121.41172791,0.278442390000009
-84.97740936,-121.42974854,0.278442390000009
-84.97796631,-121.4418335,0.278442390000009
-84.96060181,-121.39131165,0.278564460000098
-84.97963715,-121.42691803,0.278686530000186
-84.96404266,-121.36659241,0.278808600000048
-84.97786713,-121.42729187,0.278930670000136
-84.96372986,-121.37550354,0.278930670000136
-84.96563721,-121.38468933,0.279052740000225
-84.98291016,-121.44950867,0.279174810000086
-84.96820831,-121.36483765,0.279296880000174
-84.96839142,-121.39144135,0.279296880000174
-84.97458649,-121.38787842,0.279541020000124
-84.95137024,-121.37200165,0.279541020000124
-84.95269775,-121.38742828,0.279541020000124
-84.9657135,-121.39048004,0.279663090000213
-84.97215271,-121.43010712,0.279785160000074
-84.96521759,-121.39324951,0.279785160000074
-84.97483063,-121.36942291,0.279907230000163
-84.9596405,-121.37194824,0.279907230000163
-84.97770691,-121.43280792,0.279907230000163
-84.95987701,-121.44595337,0.279907230000163
-84.96099854,-121.36921692,0.280151370000112
-84.97454834,-121.42529297,0.280273440000201
-84.97049713,-121.36824799,0.280517580000151
-84.96671295,-121.365242,0.280517580000151
-84.97619629,-121.43319702,0.280639650000012
-84.96486664,-121.36328125,0.2807617200001
-84.95355988,-121.37890625,0.280883790000189
-84.97479248,-121.41929626,0.280883790000189
-84.96237946,-121.36480713,0.28100586000005
-84.98206329,-121.44821167,0.28100586000005
-84.95674896,-121.36446381,0.281127930000139
-84.96643066,-121.39156342,0.281127930000139
-84.98288727,-121.3553772,0.281127930000139
-84.96160126,-121.39243317,0.28125
-84.96649933,-121.40361023,0.281372070000089
-84.96569061,-121.36972046,0.281494140000177
-84.97331238,-121.43197632,0.281494140000177
-84.97776794,-121.43283844,0.281616210000038
-84.96317291,-121.35189056,0.281616210000038
-84.95748901,-121.3744812,0.281738280000127
-84.95536804,-121.37287903,0.281738280000127
-84.97238159,-121.41837311,0.281738280000127
-84.97891998,-121.43743896,0.281738280000127
-84.96359253,-121.39285278,0.281982420000077
-84.97870636,-121.44019318,0.281982420000077
-84.9642868,-121.37863159,0.281982420000077
-84.97460938,-121.36963654,0.282104500000059
-84.96192169,-121.35019684,0.282348640000009
-84.96542358,-121.39852142,0.282348640000009
-84.95955658,-121.37644196,0.282348640000009
-84.96943665,-121.4081192,0.282470710000098
-84.9618988,-121.39736176,0.282592780000186
-84.96307373,-121.36205292,0.282714850000048
-84.96367645,-121.36981964,0.282714850000048
-84.95110321,-121.39121246,0.282836920000136
-84.96713257,-121.38336182,0.282958990000225
-84.95462036,-121.44056702,0.282958990000225
-84.96749115,-121.37107849,0.283081060000086
-84.97583008,-121.3657608,0.283203130000174
-84.97187042,-121.37246704,0.283203130000174
-84.96469116,-121.3889389,0.283203130000174
-84.97598267,-121.42745209,0.283203130000174
-84.96817017,-121.41504669,0.283203130000174
-84.97779846,-121.4331131,0.283325200000036
-84.96386719,-121.39315033,0.283691410000074
-84.98474121,-121.44394684,0.283691410000074
-84.96613312,-121.39959717,0.283813480000163
-84.97203064,-121.39444733,0.283813480000163
-84.96781921,-121.38770294,0.283935550000024
-84.95323944,-121.3559494,0.283935550000024
-84.95767975,-121.37306976,0.284179690000201
-84.97563934,-121.43219757,0.284179690000201
-84.96573639,-121.36585236,0.284179690000201
-84.95810699,-121.37412262,0.284301760000062
-84.96324158,-121.36910248,0.284423830000151
-84.95532227,-121.37277985,0.284423830000151
-84.96639252,-121.40615082,0.284423830000151
-84.96340942,-121.36010742,0.284545900000012
-84.9595871,-121.36627197,0.284545900000012
-84.96021271,-121.40067291,0.2846679700001
-84.96650696,-121.38233948,0.284790040000189
-84.96263123,-121.35063934,0.28491211000005
-84.97689056,-121.38565063,0.28515625
-84.98500824,-121.44423676,0.28515625
-84.97605896,-121.42723846,0.285278320000089
-84.97686005,-121.36955261,0.285400390000177
-84.9621582,-121.39655304,0.285400390000177
-84.96196747,-121.4020462,0.285400390000177
-84.96179962,-121.3789978,0.285400390000177
-84.97216034,-121.37153625,0.285644530000127
-84.9616394,-121.38722992,0.285644530000127
-84.97161102,-121.35227203,0.285644530000127
-84.95327759,-121.37162018,0.285888670000077
-84.98770142,-121.44547272,0.285888670000077
-84.97502899,-121.36811829,0.286010750000059
-84.96167755,-121.38999939,0.286010750000059
-84.96331787,-121.38175964,0.286010750000059
-84.96109772,-121.36129761,0.286132820000148
-84.96511841,-121.4070816,0.286132820000148
-84.9787674,-121.43148041,0.286376960000098
-84.96195984,-121.39304352,0.286499030000186
-84.98712158,-121.44995117,0.286499030000186
-84.95121002,-121.37151337,0.286621100000048
-84.96556091,-121.36929321,0.286743170000136
-84.95983887,-121.39459229,0.286743170000136
-84.9553833,-121.3719101,0.286865240000225
-84.96566772,-121.38105011,0.286865240000225
-84.9759903,-121.38141632,0.287109380000174
-84.9627533,-121.36193848,0.287109380000174
-84.97910309,-121.37055206,0.287231450000036
-84.96022034,-121.39643097,0.287231450000036
-84.97695923,-121.39347076,0.287475590000213
-84.97731018,-121.36810303,0.287597660000074
-84.96224976,-121.36081696,0.287597660000074
-84.95459747,-121.3868866,0.287597660000074
-84.96495819,-121.36273956,0.287719730000163
-84.96460724,-121.3884964,0.287719730000163
-84.9650116,-121.38352203,0.287841800000024
-84.98732758,-121.44772339,0.287841800000024
-84.98647308,-121.44915771,0.288085940000201
-84.96617889,-121.39592743,0.288085940000201
-84.97160339,-121.37258148,0.288208010000062
-84.98419189,-121.43995667,0.288330080000151
-84.96405029,-121.35131073,0.288330080000151
-84.96077728,-121.36229706,0.288452150000012
-84.96362305,-121.40473938,0.288452150000012
-84.98577118,-121.43907928,0.288452150000012
-84.99024963,-121.44921875,0.288452150000012
-84.96248627,-121.35579681,0.288696290000189
-84.96396637,-121.35803986,0.28881836000005
-84.97817993,-121.38831329,0.28881836000005
-84.97795105,-121.42694092,0.288940430000139
-84.96990967,-121.41426849,0.288940430000139
-84.97963715,-121.36831665,0.289184570000089
-84.96604919,-121.36807251,0.289184570000089
-84.98829651,-121.44882202,0.289306640000177
-84.97421265,-121.37046051,0.289428710000038
-84.95092773,-121.37272644,0.289550780000127
-84.95937347,-121.39212799,0.289550780000127
-84.97750854,-121.36669159,0.289794920000077
-84.96320343,-121.40096283,0.289794920000077
-84.96263885,-121.37264252,0.289794920000077
-84.96127319,-121.37122345,0.289917000000059
-84.96601105,-121.39391327,0.289917000000059
-84.98693848,-121.44069672,0.289917000000059
-84.96421051,-121.37873077,0.290405280000186
-84.95680237,-121.36662292,0.290527350000048
-84.98320007,-121.44393158,0.290527350000048
-84.96748352,-121.40757751,0.290771490000225
-84.96137238,-121.38954926,0.291015630000174
-84.95941925,-121.39215851,0.291137700000036
-84.96231079,-121.39363861,0.291259770000124
-84.98272705,-121.43737793,0.291381840000213
-84.96447754,-121.39642334,0.291381840000213
-84.96266174,-121.37963104,0.291503910000074
-84.97480011,-121.36846924,0.291625980000163
-84.98410034,-121.44251251,0.291748050000024
-84.95735168,-121.3644104,0.291870120000112
-84.96138,-121.35922241,0.291992190000201
-84.97042847,-121.41210175,0.292114260000062
-84.96278381,-121.36965942,0.292236330000151
-84.98371124,-121.44448853,0.292236330000151
-84.98253632,-121.43386841,0.2924804700001
-84.97866821,-121.39572906,0.292602540000189
-84.96159363,-121.37454224,0.292602540000189
-84.97402954,-121.41766357,0.29272461000005
-84.95812225,-121.36476135,0.292846680000139
-84.95424652,-121.43968201,0.29296875
-84.96357727,-121.3543396,0.29296875
-84.97673798,-121.36927795,0.293090820000089
-84.9587326,-121.35999298,0.293090820000089
-84.96015167,-121.38999176,0.293090820000089
-84.96485901,-121.40039063,0.293334960000038
-84.98371124,-121.44174957,0.293579100000215
-84.96276093,-121.37615967,0.293701170000077
-84.96327209,-121.39199829,0.293701170000077
-84.95510864,-121.35945129,0.293701170000077
-84.96381378,-121.36605835,0.293823250000059
-84.95722198,-121.36019135,0.293823250000059
-84.97992706,-121.39082336,0.293945320000148
-84.96257782,-121.38818359,0.294067390000009
-84.95545959,-121.36035919,0.294311530000186
-84.96798706,-121.40567017,0.294311530000186
-84.96154785,-121.39714813,0.294311530000186
-84.97676849,-121.42817688,0.294433600000048
-84.96755219,-121.36933899,0.294555670000136
-84.96468353,-121.37146759,0.294555670000136
-84.97412872,-121.3702774,0.294677740000225
-84.95385742,-121.43891907,0.294677740000225
-84.96212769,-121.38787842,0.294677740000225
-84.96131134,-121.39186096,0.294799810000086
-84.97296143,-121.41609955,0.294799810000086
-84.96299744,-121.37995148,0.294921880000174
-84.98532104,-121.44416046,0.294921880000174
-84.96251678,-121.37014008,0.295166020000124
-84.96463776,-121.39437866,0.295166020000124
-84.96999359,-121.36881256,0.295288090000213
-84.97566986,-121.42333984,0.295288090000213
-84.96193695,-121.38088226,0.295410160000074
-84.96430969,-121.36940002,0.295532230000163
-84.9614563,-121.37432861,0.295776370000112
-84.96334839,-121.39504242,0.295898440000201
-84.96138,-121.35492706,0.295898440000201
-84.95075226,-121.35064697,0.296020510000062
-84.9743576,-121.41797638,0.296020510000062
-84.96427155,-121.37194061,0.296020510000062
-84.97862244,-121.37107086,0.296264650000012
-84.96476746,-121.37384033,0.296264650000012
-84.96212769,-121.37238312,0.2963867200001
-84.9802475,-121.37275696,0.296508790000189
-84.96498108,-121.37056732,0.296508790000189
-84.97660065,-121.427948,0.296508790000189
-84.9580307,-121.39189911,0.296508790000189
-84.9809494,-121.39459229,0.29663086000005
-84.96427155,-121.39964294,0.29663086000005
-84.97245789,-121.36849213,0.296752930000139
-84.9626236,-121.3702774,0.296752930000139
-84.96537781,-121.3952179,0.296875
-84.96125793,-121.37734222,0.296997070000089
-84.98137665,-121.43785858,0.297363280000127
-84.96408081,-121.39613342,0.297607420000077
-84.96308136,-121.37518311,0.297607420000077
-84.9732666,-121.3736496,0.297729500000059
-84.96460724,-121.37335205,0.297973640000009
-84.9631424,-121.38578033,0.298095710000098
-84.98094177,-121.37000275,0.298217780000186
-84.96453094,-121.40019226,0.298339850000048
-84.95465851,-121.36521912,0.298461920000136
-84.9644928,-121.39115906,0.298461920000136
-84.95591736,-121.36808777,0.298461920000136
-84.9572525,-121.35675812,0.298706060000086
-84.96750641,-121.41046143,0.299072270000124
-84.96330261,-121.37229919,0.299072270000124
-84.96549225,-121.40428925,0.299194340000213
-84.97244263,-121.42138672,0.299194340000213
-84.96182251,-121.36978149,0.299194340000213
-84.97736359,-121.36636353,0.299316410000074
-84.96147156,-121.36373138,0.299316410000074
-84.96469116,-121.37613678,0.299438480000163
-84.9577179,-121.35856628,0.299438480000163
-84.96585083,-121.36546326,0.299682620000112
-84.97155762,-121.37162781,0.299926760000062
-84.98239136,-121.39672089,0.299926760000062
-84.9593811,-121.35520935,0.299926760000062
-84.96391296,-121.39289856,0.300415040000189
-84.96170807,-121.39547729,0.300415040000189
-84.9628067,-121.37516022,0.300415040000189
-84.95085907,-121.37155151,0.30053711000005
-84.95974731,-121.37928009,0.300659180000139
-84.97316742,-121.3658905,0.300903320000089
-84.96376038,-121.38996887,0.300903320000089
-84.97138214,-121.41957855,0.301025390000177
-84.95198822,-121.36341095,0.301025390000177
-84.96811676,-121.36615753,0.301147460000038
-84.96307373,-121.39434814,0.301147460000038
-84.97875214,-121.43119049,0.301147460000038
-84.98462677,-121.39772797,0.301269530000127
-84.95948029,-121.36514282,0.301269530000127
-84.97368622,-121.3708725,0.301391600000215
-84.97669983,-121.36817932,0.301879890000009
-84.96087646,-121.39694214,0.302001960000098
-84.95990753,-121.39395905,0.302001960000098
-84.98178864,-121.37426758,0.302124030000186
-84.98278046,-121.39501953,0.302124030000186
-84.9644928,-121.36688232,0.302124030000186
-84.97969055,-121.43254089,0.302246100000048
-84.97930145,-121.37580109,0.302368170000136
-84.95852661,-121.35941315,0.302490240000225
-84.9642334,-121.35399628,0.302490240000225
-84.96498871,-121.37043762,0.302734380000174
-84.95980835,-121.39813232,0.302734380000174
-84.96925354,-121.37046051,0.302856450000036
-84.95536041,-121.36260986,0.302856450000036
-84.98417664,-121.43942261,0.302856450000036
-84.95799255,-121.3894577,0.302978520000124
-84.96737671,-121.36888123,0.303222660000074
-84.96528625,-121.38928223,0.303222660000074
-84.96807861,-121.36608124,0.303344730000163
-84.96576691,-121.3928299,0.303344730000163
-84.96631622,-121.36981201,0.303466800000024
-84.95703888,-121.36190796,0.303588870000112
-84.97846222,-121.37055969,0.303710940000201
-84.96276093,-121.4026413,0.303833010000062
-84.98710632,-121.44418335,0.303833010000062
-84.96056366,-121.36660004,0.303955080000151
-84.9588089,-121.36695099,0.304321290000189
-84.96003723,-121.39264679,0.304321290000189
-84.95871735,-121.39354706,0.304321290000189
-84.95291138,-121.35044098,0.304565430000139
-84.96668243,-121.39443207,0.304565430000139
-84.98175812,-121.37418365,0.3046875
-84.95941162,-121.35633087,0.3046875
-84.96613312,-121.40792847,0.3046875
-84.97306061,-121.41876221,0.3046875
-84.96105957,-121.37412262,0.304809570000089
-84.96576691,-121.38056946,0.304809570000089
-84.95928192,-121.38231659,0.304809570000089
-84.95899963,-121.37403107,0.305053710000038
-84.96707916,-121.37992096,0.305053710000038
-84.96768951,-121.36894226,0.305297850000215
-84.96315765,-121.39164734,0.305297850000215
-84.96357727,-121.3601532,0.305297850000215
-84.95426178,-121.35865021,0.305419920000077
-84.98716736,-121.44394684,0.305419920000077
-84.96867371,-121.36408234,0.305542000000059
-84.96504211,-121.36772919,0.305542000000059
-84.96782684,-121.39302826,0.305786140000009
-84.96569824,-121.36698914,0.305908210000098
-84.95736694,-121.35517883,0.305908210000098
-84.95899963,-121.39385223,0.306030280000186
-84.97892761,-121.42777252,0.306152350000048
-84.9733429,-121.41905212,0.306274420000136
-84.96626282,-121.38137817,0.306518560000086
-84.96495056,-121.38529205,0.306518560000086
-84.95500946,-121.35443878,0.306640630000174
-84.9577713,-121.36730194,0.306640630000174
-84.96214294,-121.39649963,0.306640630000174
-84.96370697,-121.40125275,0.306762700000036
-84.98152924,-121.37439728,0.306884770000124
-84.96309662,-121.3706131,0.306884770000124
-84.95327759,-121.35337067,0.307128910000074
-84.9681015,-121.39331818,0.307128910000074
-84.96211243,-121.3898468,0.307250980000163
-84.96600342,-121.37535858,0.307373050000024
-84.96515656,-121.37654114,0.307495120000112
-84.96694946,-121.38571167,0.307495120000112
-84.9865799,-121.44595337,0.307617190000201
-84.97985077,-121.42936707,0.307617190000201
-84.96882629,-121.3637085,0.307861330000151
-84.95732117,-121.3722229,0.307983400000012
-84.96607971,-121.38741302,0.307983400000012
-84.96552277,-121.40416718,0.307983400000012
-84.95559692,-121.35090637,0.3081054700001
-84.98343658,-121.43817902,0.3081054700001
-84.95876312,-121.38233185,0.308227540000189
-84.96469116,-121.37000275,0.30834961000005
-84.96549225,-121.3951416,0.30834961000005
-84.97506714,-121.3728714,0.308471680000139
-84.98886108,-121.44940186,0.308715820000089
-84.96681213,-121.39124298,0.308837890000177
-84.96465302,-121.37065887,0.308959960000038
-84.96446991,-121.36672974,0.309082030000127
-84.96695709,-121.37670898,0.309082030000127
-84.98361206,-121.37592316,0.309204100000215
-84.96224213,-121.37013245,0.309204100000215
-84.97226715,-121.41474915,0.309326170000077
-84.96579742,-121.40445709,0.309448250000059
-84.96562958,-121.37133789,0.309570320000148
-84.96369171,-121.38021851,0.309692390000009
-84.96134949,-121.37851715,0.309692390000009
-84.95568848,-121.36074066,0.309814460000098
-84.95632935,-121.35112762,0.309814460000098
-84.95002747,-121.35243225,0.309814460000098
-84.97908783,-121.37503815,0.309936530000186
-84.96526337,-121.37960052,0.310180670000136
-84.96798706,-121.39286041,0.310302740000225
-84.97599792,-121.37004089,0.310424810000086
-84.95700073,-121.37322235,0.310424810000086
-84.96766663,-121.37452698,0.310424810000086
-84.96547699,-121.36736298,0.310668950000036
-84.9745636,-121.42121887,0.310668950000036
-84.98046875,-121.37805176,0.310791020000124
-84.96302032,-121.36659241,0.310791020000124
-84.96343994,-121.36920166,0.310791020000124
-84.95046234,-121.35415649,0.310913090000213
-84.96528625,-121.38588715,0.311035160000074
-84.96482086,-121.38233948,0.311157230000163
-84.9749527,-121.393013,0.311157230000163
-84.98535156,-121.3769989,0.311523440000201
-84.97820282,-121.37081909,0.311523440000201
-84.97949219,-121.37335968,0.311523440000201
-84.96489716,-121.39438629,0.311645510000062
-84.96000671,-121.38948822,0.311645510000062
-84.96808624,-121.40818787,0.311767580000151
-84.9681778,-121.38136292,0.311767580000151
-84.97350311,-121.42240906,0.311889650000012
-84.98110199,-121.36763763,0.312133790000189
-84.96543121,-121.36534882,0.312133790000189
-84.96772003,-121.3745575,0.312133790000189
-84.967453,-121.36525726,0.31225586000005
-84.96839142,-121.37888336,0.31225586000005
-84.95754242,-121.37097931,0.312377930000139
-84.96453094,-121.39613342,0.312377930000139
-84.96420288,-121.38130951,0.312622070000089
-84.96488953,-121.38538361,0.312744140000177
-84.96559143,-121.3891983,0.312744140000177
-84.97020721,-121.39079285,0.312744140000177
-84.96807861,-121.36519623,0.312866210000038
-84.98401642,-121.43904877,0.312866210000038
-84.98619843,-121.38111877,0.312988280000127
-84.9753418,-121.37187195,0.312988280000127
-84.97241974,-121.37503052,0.312988280000127
-84.96858978,-121.37011719,0.312988280000127
-84.96498871,-121.40019226,0.313110350000215
-84.97846222,-121.36968231,0.313232420000077
-84.95427704,-121.35920715,0.313354500000059
-84.95449066,-121.37233734,0.313476570000148
-84.98433685,-121.36358643,0.313598640000009
-84.97399902,-121.42323303,0.313598640000009
-84.95387268,-121.35617828,0.313720710000098
-84.95256042,-121.35813141,0.313720710000098
-84.98677063,-121.44278717,0.313720710000098
-84.95603943,-121.3509903,0.313842780000186
-84.96733093,-121.37380219,0.313964850000048
-84.96909332,-121.41230774,0.313964850000048
-84.96479034,-121.39862823,0.313964850000048
-84.96974182,-121.36711121,0.314208990000225
-84.9671936,-121.38858795,0.314208990000225
-84.96324921,-121.3940506,0.314208990000225
-84.97901154,-121.36747742,0.314331060000086
-84.97084808,-121.3738327,0.314331060000086
-84.95778656,-121.36981964,0.314575200000036
-84.96932983,-121.3742218,0.314575200000036
-84.96153259,-121.36031342,0.314575200000036
-84.95678711,-121.38559723,0.314575200000036
-84.97263336,-121.37364197,0.314697270000124
-84.96373749,-121.40087128,0.314819340000213
-84.9500885,-121.35650635,0.314941410000074
-84.96865845,-121.36689758,0.314941410000074
-84.96498108,-121.36882019,0.315185550000024
-84.96235657,-121.39624786,0.315429690000201
-84.96363068,-121.38686371,0.315429690000201
-84.96726227,-121.37346649,0.315673830000151
-84.97505951,-121.37310028,0.315795900000012
-84.96756744,-121.40995789,0.315795900000012
-84.96518707,-121.38269043,0.315795900000012
-84.96765137,-121.36695862,0.3159179700001
-84.95220184,-121.3650589,0.3159179700001
-84.9868927,-121.44860077,0.316040040000189
-84.96237183,-121.36856079,0.31616211000005
-84.96694946,-121.37631226,0.31616211000005
-84.95546722,-121.35990143,0.31640625
-84.9785614,-121.42688751,0.31640625
-84.95526123,-121.35862732,0.316528320000089
-84.97290039,-121.37101746,0.316528320000089
-84.96391296,-121.38334656,0.316650390000177
-84.98371887,-121.43482208,0.316650390000177
-84.97096252,-121.37185669,0.316894530000127
-84.96240234,-121.39000702,0.317016600000215
-84.95770264,-121.38231659,0.317016600000215
-84.98313904,-121.36779022,0.317260750000059
-84.97164917,-121.37770081,0.317260750000059
-84.96134186,-121.39720154,0.317260750000059
-84.9693985,-121.41287994,0.317260750000059
-84.96707153,-121.35871887,0.317260750000059
-84.96174622,-121.39523315,0.317504890000009
-84.96700287,-121.37634277,0.317626960000098
-84.97824097,-121.37004852,0.317993170000136
-84.9525528,-121.35675049,0.317993170000136
-84.9659729,-121.38954926,0.317993170000136
-84.95726013,-121.35038757,0.318115240000225
-84.96044922,-121.38961792,0.318115240000225
-84.96346283,-121.38008118,0.318237310000086
-84.97501373,-121.37998962,0.318359380000174
-84.96965027,-121.37153625,0.318359380000174
-84.97160339,-121.36885071,0.318603520000124
-84.96286774,-121.38780975,0.318603520000124
-84.95287323,-121.38648224,0.318603520000124
-84.97319031,-121.37158203,0.318725590000213
-84.96160889,-121.39749908,0.318725590000213
-84.95926666,-121.38809204,0.318847660000074
-84.97566986,-121.37003326,0.319213870000112
-84.98114014,-121.36683655,0.319335940000201
-84.96092987,-121.39369202,0.319335940000201
-84.95075226,-121.36930847,0.319458010000062
-84.95816803,-121.36038208,0.319458010000062
-84.96250916,-121.39282227,0.319702150000012
-84.97754669,-121.42510223,0.319702150000012
-84.98449707,-121.37200165,0.3198242200001
-84.96433258,-121.40174103,0.3198242200001
-84.95935059,-121.38169098,0.319946290000189
-84.97853851,-121.36914063,0.320190430000139
-84.96379852,-121.38288879,0.320190430000139
-84.97387695,-121.36963654,0.3203125
-84.96862793,-121.37901306,0.3203125
-84.97325897,-121.3707428,0.320434570000089
-84.98581696,-121.44155884,0.320434570000089
-84.96704865,-121.35865021,0.320556640000177
-84.9605484,-121.36340332,0.320556640000177
-84.97180939,-121.36872101,0.320800780000127
-84.95864868,-121.3655777,0.320800780000127
-84.98679352,-121.44539642,0.320922850000215
-84.979599,-121.42829132,0.321167000000059
-84.96256256,-121.39283752,0.321289070000148
-84.9581604,-121.38493347,0.321289070000148
-84.98126221,-121.37364197,0.321411140000009
-84.97257233,-121.36428833,0.321411140000009
-84.96537781,-121.36477661,0.321411140000009
-84.95117188,-121.38371277,0.321533210000098
-84.96347809,-121.4004364,0.321533210000098
-84.96517944,-121.39154816,0.321655280000186
-84.96920013,-121.36846161,0.321777350000048
-84.98300934,-121.36737823,0.321899420000136
-84.96325684,-121.37429047,0.321899420000136
-84.97773743,-121.37223053,0.321899420000136
-84.96588898,-121.37220001,0.322143560000086
-84.95742035,-121.35176086,0.322143560000086
-84.96620941,-121.40442657,0.322387700000036
-84.96867371,-121.37026215,0.322387700000036
-84.96012115,-121.39241791,0.322631840000213
-84.97979736,-121.37158966,0.322753910000074
-84.97844696,-121.3687973,0.322875980000163
-84.97090912,-121.41182709,0.322875980000163
-84.97258759,-121.35706329,0.322875980000163
-84.97447205,-121.3742218,0.322998050000024
-84.96366119,-121.38593292,0.323120120000112
-84.97596741,-121.37286377,0.323242190000201
-84.97855377,-121.42648315,0.323242190000201
-84.97129059,-121.37001038,0.323364260000062
-84.95063019,-121.35250854,0.323364260000062
-84.95818329,-121.36710358,0.323608400000012
-84.96872711,-121.37580872,0.323608400000012
-84.96389008,-121.37126923,0.3237304700001
-84.98034668,-121.43264771,0.323852540000189
-84.957901,-121.3510437,0.32397461000005
-84.95825195,-121.35623169,0.32397461000005
-84.9794693,-121.43434143,0.324096680000139
-84.96964264,-121.37413025,0.324340820000089
-84.96456146,-121.37499237,0.324462890000177
-84.96581268,-121.37683868,0.324462890000177
-84.994133,-121.37671661,0.324707030000127
-84.95728302,-121.36161041,0.324829100000215
-84.96109772,-121.39051819,0.324829100000215
-84.96530151,-121.39135742,0.324951170000077
-84.97812653,-121.42622375,0.324951170000077
-84.98130035,-121.43701172,0.324951170000077
-84.96421051,-121.39253235,0.325195320000148
-84.9678421,-121.40711212,0.325317390000009
-84.97928619,-121.43083954,0.325317390000009
-84.9835968,-121.37402344,0.325439460000098
-84.974617,-121.3738327,0.325561530000186
-84.9591217,-121.37908173,0.325683600000048
-84.95256042,-121.35373688,0.325683600000048
-84.96334076,-121.39421844,0.325683600000048
-84.98670197,-121.44522095,0.325683600000048
-84.96414948,-121.37011719,0.325805670000136
-84.96179199,-121.35453796,0.325805670000136
-84.9644928,-121.37667847,0.325927740000225
-84.99481964,-121.3739624,0.326049810000086
-84.96694183,-121.3761673,0.326049810000086
-84.9588623,-121.37171173,0.326171880000174
-84.96578217,-121.38890839,0.326171880000174
-84.99594116,-121.37934113,0.326293950000036
-84.97753906,-121.37191772,0.326293950000036
-84.96170044,-121.35726929,0.326293950000036
-84.9572525,-121.35562897,0.326293950000036
-84.98565674,-121.37541962,0.326416020000124
-84.95783234,-121.35939026,0.326538090000213
-84.96427917,-121.3985672,0.326660160000074
-84.96798706,-121.36392212,0.326660160000074
-84.96379852,-121.39202118,0.326782230000163
-84.98078918,-121.36789703,0.326904300000024
-84.95884705,-121.38465881,0.327270510000062
-84.99706268,-121.37497711,0.327392580000151
-84.9679718,-121.37258911,0.327392580000151
-84.96775055,-121.37641144,0.327392580000151
-84.96988678,-121.3744812,0.327514650000012
-84.97062683,-121.37551117,0.327514650000012
-84.98187256,-121.37071228,0.327758790000189
-84.97457123,-121.37332153,0.327758790000189
-84.96537018,-121.38838959,0.327758790000189
-84.97466278,-121.42373657,0.328125
-84.9703598,-121.38047028,0.328735350000215
-84.97428131,-121.36221313,0.328735350000215
-84.96143341,-121.39437103,0.328979500000059
-84.98403168,-121.37992096,0.329101570000148
-84.9699707,-121.37497711,0.329101570000148
-84.97331238,-121.37399292,0.329223640000009
-84.97678375,-121.37451172,0.329345710000098
-84.95722961,-121.37014008,0.329345710000098
-84.96514893,-121.38213348,0.329345710000098
-84.96733093,-121.40888977,0.329345710000098
-84.98612213,-121.44447327,0.329467780000186
-84.98217773,-121.36979675,0.329711920000136
-84.97418976,-121.37255859,0.329711920000136
-84.96565247,-121.39196014,0.329711920000136
-84.97107697,-121.37522888,0.329711920000136
-84.95635223,-121.35098267,0.329833990000225
-84.97427368,-121.42298126,0.329833990000225
-84.99659729,-121.37651062,0.329956060000086
-84.96523285,-121.3941803,0.329956060000086
-84.95690918,-121.36251068,0.330078130000174
-84.97940063,-121.37239838,0.330322270000124
-84.96714783,-121.37493134,0.330688480000163
-84.9718399,-121.36006927,0.330688480000163
-84.95887756,-121.38762665,0.330688480000163
-84.966362,-121.38977051,0.330932620000112
-84.96465302,-121.3956604,0.330932620000112
-84.96060944,-121.3928299,0.331054690000201
-84.98269653,-121.37729645,0.331298830000151
-84.97608948,-121.42591095,0.331298830000151
-84.96723175,-121.37921143,0.331298830000151
-84.98282623,-121.43923187,0.331420900000012
-84.97650146,-121.37448883,0.3315429700001
-84.97226715,-121.37219238,0.3315429700001
-84.96456909,-121.38411713,0.3315429700001
-84.96424866,-121.40415955,0.3315429700001
-84.97193146,-121.37464905,0.33203125
-84.9624176,-121.39575195,0.332153320000089
-84.97902679,-121.43041229,0.332153320000089
-84.98667145,-121.44506073,0.332397460000038
-84.96439362,-121.3868866,0.332763670000077
-84.97145081,-121.4152832,0.332885750000059
-84.96407318,-121.40392303,0.333007820000148
-84.96620941,-121.39254761,0.333129890000009
-84.99588013,-121.37934113,0.333251960000098
-84.96386719,-121.35710907,0.333374030000186
-84.96350861,-121.38230896,0.333374030000186
-84.98256683,-121.37673187,0.333496100000048
-84.96559143,-121.39427185,0.333618170000136
-84.96025848,-121.39510345,0.333740240000225
-84.98303223,-121.36665344,0.333862310000086
-84.96517944,-121.396492,0.333862310000086
-84.96295929,-121.35405731,0.333984380000174
-84.97707367,-121.42727661,0.333984380000174
-84.95284271,-121.39222717,0.333984380000174
-84.96003723,-121.39183044,0.334350590000213
-84.97184753,-121.37432098,0.334472660000074
-84.96195984,-121.3771286,0.334472660000074
-84.97437286,-121.37541199,0.334472660000074
-84.97149658,-121.41531372,0.334594730000163
-84.96946716,-121.37075806,0.334716800000024
-84.96724701,-121.37033844,0.334716800000024
-84.98249817,-121.43849945,0.334838870000112
-84.98876953,-121.44802094,0.334838870000112
-84.97975159,-121.3706131,0.334960940000201
-84.9651413,-121.39099121,0.334960940000201
-84.96283722,-121.36238861,0.335083010000062
-84.96517181,-121.37413788,0.335205080000151
-84.95588684,-121.37375641,0.335205080000151
-84.97258759,-121.37602997,0.335205080000151
-84.96453094,-121.39244843,0.335205080000151
-84.97393799,-121.37461853,0.335327150000012
-84.97325134,-121.37470245,0.3354492200001
-84.96499634,-121.39624786,0.335571290000189
-84.98287201,-121.37580872,0.33569336000005
-84.96714783,-121.39115906,0.33569336000005
-84.9585495,-121.39224243,0.3359375
-84.96878052,-121.39932251,0.3359375
-84.96740723,-121.3944397,0.336059570000089
-84.96459961,-121.40149689,0.336059570000089
-84.96791077,-121.3637085,0.336181640000177
-84.96450043,-121.38368988,0.336303710000038
-84.98415375,-121.37091827,0.336547850000215
-84.96572113,-121.35305786,0.336547850000215
-84.97424316,-121.42282867,0.336669920000077
-84.96875763,-121.37245178,0.336669920000077
-84.95578003,-121.38189697,0.336792000000059
-84.96753693,-121.37064362,0.336792000000059
-84.98171997,-121.38751221,0.336914070000148
-84.97138214,-121.37584686,0.337036140000009
-84.96079254,-121.39292908,0.337036140000009
-84.96369934,-121.39417267,0.337158210000098
-84.98207092,-121.36952972,0.337280280000186
-84.97177124,-121.37448883,0.337280280000186
-84.96756744,-121.40901947,0.337280280000186
-84.96407318,-121.35723114,0.337646490000225
-84.96700287,-121.39394379,0.337890630000174
-84.96592712,-121.39485931,0.337890630000174
-84.9679184,-121.38172913,0.337890630000174
-84.97399902,-121.37191772,0.338012700000036
-84.96440125,-121.36813354,0.338012700000036
-84.97255707,-121.37172699,0.338134770000124
-84.96542358,-121.37902069,0.338134770000124
-84.97879028,-121.37348938,0.338378910000074
-84.95509338,-121.377388,0.338378910000074
-84.96176147,-121.39704132,0.338500980000163
-84.98458862,-121.36946106,0.338745120000112
-84.95665741,-121.37883759,0.338745120000112
-84.9718399,-121.41915894,0.338745120000112
-84.98142242,-121.35709381,0.338867190000201
-84.96861267,-121.39633942,0.338989260000062
-84.96264648,-121.39235687,0.338989260000062
-84.96740723,-121.37619781,0.338989260000062
-84.95905304,-121.39031982,0.339111330000151
-84.96730804,-121.39698792,0.339111330000151
-84.96838379,-121.36356354,0.339233400000012
-84.98325348,-121.38146973,0.339477540000189
-84.98282623,-121.39050293,0.339477540000189
-84.97727203,-121.43013,0.339477540000189
-84.9574585,-121.37532043,0.33959961000005
-84.96459961,-121.38375092,0.33984375
-84.98126221,-121.37188721,0.340087890000177
-84.97400665,-121.373909,0.340087890000177
-84.95346069,-121.37330627,0.340209960000038
-84.96427155,-121.37618256,0.340209960000038
-84.96160126,-121.39981842,0.340209960000038
-84.95549774,-121.35836029,0.340332030000127
-84.95301819,-121.35778809,0.340332030000127
-84.96910858,-121.39363861,0.340332030000127
-84.9693222,-121.39742279,0.340454100000215
-84.96269226,-121.39563751,0.340454100000215
-84.98433685,-121.38553619,0.340576170000077
-84.98764038,-121.44876862,0.340576170000077
-84.97218323,-121.37246704,0.340698250000059
-84.9657135,-121.38284302,0.340820320000148
-84.98594666,-121.37113953,0.340942390000009
-84.96157837,-121.39080048,0.341064460000098
-84.97476959,-121.37303162,0.341186530000186
-84.97664642,-121.42910004,0.341186530000186
-84.95423126,-121.37949371,0.341430670000136
-84.97026062,-121.39550018,0.341430670000136
-84.95748901,-121.35813904,0.341552740000225
-84.96768951,-121.41235352,0.341552740000225
-84.96534729,-121.36786652,0.341552740000225
-84.95005798,-121.35588837,0.341674810000086
-84.97104645,-121.35655975,0.341918950000036
-84.97363281,-121.36869049,0.342041020000124
-84.96264648,-121.37433624,0.342041020000124
-84.97454071,-121.36676025,0.342407230000163
-84.96408844,-121.39453125,0.342407230000163
-84.96668243,-121.36405182,0.342407230000163
-84.96463013,-121.37476349,0.342529300000024
-84.96711731,-121.38472748,0.342529300000024
-84.9681015,-121.39785004,0.342529300000024
-84.96701813,-121.3747406,0.342773440000201
-84.96626282,-121.38617706,0.342773440000201
-84.98416901,-121.38600159,0.342895510000062
-84.96388245,-121.37371063,0.342895510000062
-84.97228241,-121.37184143,0.343139650000012
-84.96897125,-121.39341736,0.3432617200001
-84.96707153,-121.41133118,0.3432617200001
-84.97592926,-121.37190247,0.34350586000005
-84.96734619,-121.3789978,0.343627930000139
-84.96321869,-121.39647675,0.343627930000139
-84.95179749,-121.35562897,0.34375
-84.96257782,-121.37433624,0.343872070000089
-84.98529053,-121.38163757,0.343994140000177
-84.97293091,-121.42333984,0.344238280000127
-84.95968628,-121.37518311,0.344360350000215
-84.96302032,-121.39296722,0.344482420000077
-84.97265625,-121.37241364,0.344604500000059
-84.96430206,-121.38304138,0.344604500000059
-84.96726227,-121.39656067,0.344604500000059
-84.97451782,-121.37158203,0.344726570000148
-84.95108795,-121.37312317,0.344726570000148
-84.97052002,-121.38378143,0.344726570000148
-84.95723724,-121.39000702,0.344726570000148
-84.96231079,-121.36269379,0.344848640000009
-84.95368195,-121.37206268,0.344970710000098
-84.95108795,-121.35381317,0.345092780000186
-84.97543335,-121.42706299,0.345092780000186
-84.97634888,-121.38165283,0.345336920000136
-84.96642303,-121.39801025,0.345336920000136
-84.95493317,-121.37687683,0.345581060000086
-84.98477173,-121.36813354,0.345703130000174
-84.95181274,-121.39518738,0.345703130000174
-84.98648834,-121.36904907,0.345825200000036
-84.97267914,-121.35874176,0.345825200000036
-84.95929718,-121.39295197,0.345825200000036
-84.96086121,-121.37104034,0.345947270000124
-84.96434021,-121.37355042,0.346069340000213
-84.97997284,-121.37576294,0.346191410000074
-84.9774704,-121.43023682,0.346191410000074
-84.96278381,-121.37293243,0.346313480000163
-84.97579193,-121.35566711,0.346313480000163
-84.97576904,-121.37193298,0.346435550000024
-84.96134186,-121.40238953,0.346435550000024
-84.98105621,-121.43579865,0.346435550000024
-84.9691925,-121.38739014,0.346435550000024
-84.9680481,-121.41295624,0.346557620000112
-84.95105743,-121.35401154,0.346679690000201
-84.97142792,-121.38262939,0.346679690000201
-84.95095825,-121.37381744,0.346923830000151
-84.97689056,-121.37943268,0.347045900000012
-84.95719147,-121.3579483,0.347045900000012
-84.96887207,-121.39295959,0.347045900000012
-84.96151733,-121.39389038,0.347045900000012
-84.96737671,-121.37296295,0.3471679700001
-84.98583221,-121.38803864,0.347290040000189
-84.97692871,-121.3702774,0.34741211000005
-84.97007751,-121.4161377,0.34741211000005
-84.97299194,-121.35619354,0.34765625
-84.9681778,-121.38475037,0.34765625
-84.96617889,-121.38598633,0.347778320000089
-84.96224976,-121.39144897,0.348022460000038
-84.96933746,-121.39402771,0.348510750000059
-84.98001099,-121.43399048,0.348510750000059
-84.96999359,-121.37210083,0.348876960000098
-84.95136261,-121.37213135,0.348876960000098
-84.96527863,-121.38191986,0.348876960000098
-84.96048737,-121.39183044,0.348876960000098
-84.97129059,-121.37464142,0.348999030000186
