"X","Y","Z"
-84.84098053,-121.32953644,0.350708010000062
-84.84966278,-121.32266235,0.355590820000089
-84.84906769,-121.32511902,0.356445320000148
-84.84940338,-121.32235718,0.356811530000186
-84.84744263,-121.3334198,0.358520510000062
-84.84884644,-121.32328033,0.3588867200001
-84.84860992,-121.31390381,0.362304690000201
-84.84912872,-121.33261108,0.362426760000062
-84.8499527,-121.31092834,0.362670900000012
-84.84623718,-121.33164978,0.363769530000127
-84.84976196,-121.31611633,0.364379890000009
-84.84983063,-121.313591,0.365234380000174
-84.84544373,-121.33286285,0.365234380000174
-84.84282684,-121.3316803,0.367431640000177
-84.84957123,-121.31326294,0.367553710000038
-84.84394836,-121.32778931,0.369140630000174
-84.84108734,-121.32607269,0.369750980000163
-84.84355164,-121.32727814,0.371215820000089
-84.84883881,-121.31109619,0.371704100000215
-84.84446716,-121.32536316,0.371704100000215
-84.84522247,-121.32946014,0.374145510000062
-84.8482666,-121.31223297,0.37475586000005
-84.8434906,-121.32685089,0.376464850000048
-84.8457489,-121.31182098,0.377197270000124
-84.84893799,-121.31391144,0.377563480000163
-84.84957886,-121.33287048,0.377685550000024
-84.84895325,-121.31285858,0.379272460000038
-84.84597778,-121.29769897,0.379516600000215
-84.84049988,-121.32491302,0.380126960000098
-84.84697723,-121.33194733,0.380249030000186
-84.84886932,-121.30706024,0.380615240000225
-84.84278107,-121.32836914,0.381469730000163
-84.84738159,-121.31423187,0.381591800000024
-84.84824371,-121.31075287,0.381713870000112
-84.84725189,-121.33249664,0.382202150000012
-84.84903717,-121.3164978,0.38256836000005
-84.846138,-121.31339264,0.383300780000127
-84.84906769,-121.3289032,0.383300780000127
-84.84107208,-121.32852173,0.383300780000127
-84.84937286,-121.33194733,0.384399420000136
-84.8451004,-121.30605316,0.384521490000225
-84.84803772,-121.31588745,0.385131840000213
-84.84954071,-121.30764771,0.386108400000012
-84.84890747,-121.32566833,0.386352540000189
-84.84738922,-121.32631683,0.387329100000215
-84.84940338,-121.32647705,0.388061530000186
-84.84393311,-121.33283997,0.389282230000163
-84.84610748,-121.32424164,0.389404300000024
-84.84989166,-121.32404327,0.389526370000112
-84.8484726,-121.3162384,0.3901367200001
-84.8454895,-121.32621002,0.390625
-84.84771729,-121.32663727,0.390869140000177
-84.84490204,-121.33394623,0.390991210000038
-84.84950256,-121.32653809,0.391235350000215
-84.84555817,-121.32598877,0.392211920000136
-84.84954834,-121.3129425,0.392578130000174
-84.84848785,-121.31465912,0.392578130000174
-84.84777069,-121.32666779,0.392578130000174
-84.84403229,-121.32990265,0.393188480000163
-84.84966278,-121.31690979,0.393676760000062
-84.84712982,-121.30980682,0.394165040000189
-84.849823,-121.31165314,0.39428711000005
-84.84545135,-121.30721283,0.395263670000077
-84.84971619,-121.30634308,0.395751960000098
-84.84568024,-121.33232117,0.395751960000098
-84.84783936,-121.31027985,0.395874030000186
-84.84832001,-121.31049347,0.397460940000201
-84.84825897,-121.31197357,0.39819336000005
-84.84797668,-121.33306122,0.399169920000077
-84.84848785,-121.31217957,0.399536140000009
-84.83863831,-121.32781982,0.400146490000225
-84.84738922,-121.33177948,0.401000980000163
-84.84964752,-121.31414795,0.401611330000151
-84.84619141,-121.32077789,0.401977540000189
-84.8473587,-121.32305908,0.40234375
-84.8469696,-121.33126831,0.402587890000177
-84.84618378,-121.32074738,0.402954100000215
-84.84925842,-121.33120728,0.403442390000009
-84.84033203,-121.33000946,0.403442390000009
-84.84661865,-121.30673218,0.403564460000098
-84.83812714,-121.32959747,0.404541020000124
-84.84824371,-121.3102417,0.405151370000112
-84.84014893,-121.32048035,0.405395510000062
-84.84867096,-121.31197357,0.40625
-84.84957123,-121.32299805,0.406372070000089
-84.84825897,-121.30892944,0.406860350000215
-84.84681702,-121.32263947,0.407104500000059
-84.84977722,-121.32929993,0.407226570000148
-84.84481812,-121.32256317,0.407592780000186
-84.8498764,-121.3049469,0.407714850000048
-84.84742737,-121.31111908,0.407958990000225
-84.84871674,-121.33049011,0.408447270000124
-84.84844208,-121.31036377,0.409179690000201
-84.83959961,-121.32904053,0.410034180000139
-84.84842682,-121.31031799,0.410400390000177
-84.8493576,-121.31234741,0.410522460000038
-84.84768677,-121.32556152,0.410644530000127
-84.84544373,-121.30970764,0.410888670000077
-84.84677887,-121.32736206,0.410888670000077
-84.84381104,-121.30589294,0.411254890000009
-84.8447876,-121.32772827,0.412231450000036
-84.84346008,-121.30834198,0.412597660000074
-84.8359375,-121.32878876,0.412719730000163
-84.83792877,-121.32920837,0.413085940000201
-84.84203339,-121.30600739,0.413452150000012
-84.84841156,-121.30203247,0.4140625
-84.84976196,-121.3139801,0.414550780000127
-84.84645844,-121.32990265,0.414794920000077
-84.84506989,-121.31207275,0.414917000000059
-84.84470367,-121.33001709,0.415161140000009
-84.84825134,-121.31416321,0.415283210000098
-84.84407806,-121.31124878,0.415893560000086
-84.84735107,-121.29633331,0.416259770000124
-84.84230804,-121.31944275,0.416381840000213
-84.84900665,-121.3053894,0.416503910000074
-84.84725189,-121.3213501,0.416503910000074
-84.84970093,-121.32292175,0.416625980000163
-84.84516144,-121.32807922,0.416870120000112
-84.83834839,-121.31803894,0.417114260000062
-84.84304047,-121.3119278,0.417236330000151
-84.8429718,-121.3221817,0.417236330000151
-84.83894348,-121.32759094,0.417358400000012
-84.84797668,-121.30606079,0.417846680000139
-84.84700012,-121.33074951,0.418334960000038
-84.84725952,-121.32776642,0.419067390000009
-84.83921814,-121.32788849,0.419067390000009
-84.84375,-121.31263733,0.419189460000098
-84.84963226,-121.31656647,0.419433600000048
-84.84644318,-121.32221222,0.420043950000036
-84.84941101,-121.32000732,0.420288090000213
-84.84503174,-121.32787323,0.420410160000074
-84.84941101,-121.32277679,0.420654300000024
-84.84217834,-121.32914734,0.420776370000112
-84.83770752,-121.32553864,0.420898440000201
-84.8496933,-121.30600739,0.421020510000062
-84.844841,-121.32436371,0.421508790000189
-84.83973694,-121.32872772,0.421752930000139
-84.84736633,-121.31591797,0.421875
-84.84764099,-121.32292938,0.422119140000177
-84.84438324,-121.32308197,0.422119140000177
-84.84078217,-121.31044006,0.422363280000127
-84.84519196,-121.3133316,0.422485350000215
-84.84661865,-121.31561279,0.422851570000148
-84.84661865,-121.32337189,0.422851570000148
-84.8460083,-121.30332947,0.422973640000009
-84.84443665,-121.3130188,0.423461920000136
-84.84146881,-121.31192017,0.423706060000086
-84.84259796,-121.30770111,0.423828130000174
-84.84612274,-121.31507111,0.423828130000174
-84.84980011,-121.32602692,0.423828130000174
-84.84255981,-121.30893707,0.424072270000124
-84.84700012,-121.30280304,0.424682620000112
-84.84680176,-121.32480621,0.424926760000062
-84.84976196,-121.32563019,0.425659180000139
-84.84557343,-121.30821991,0.42578125
-84.84941864,-121.32527924,0.42578125
-84.84526062,-121.31745148,0.426635750000059
-84.84873199,-121.3260498,0.427246100000048
-84.84162903,-121.31356049,0.427246100000048
-84.84916687,-121.3200531,0.427490240000225
-84.84824371,-121.2986908,0.427734380000174
-84.84375,-121.31735992,0.427856450000036
-84.84214783,-121.32029724,0.428222660000074
-84.84819031,-121.32597351,0.428344730000163
-84.83863068,-121.32949066,0.428344730000163
-84.84896088,-121.29573822,0.428466800000024
-84.84372711,-121.32563782,0.4291992200001
-84.84883881,-121.32198334,0.429321290000189
-84.8370285,-121.3155899,0.42944336000005
-84.84264374,-121.32681274,0.42944336000005
-84.84406281,-121.32282257,0.429565430000139
-84.84912872,-121.32731628,0.429565430000139
-84.84178162,-121.32824707,0.429809570000089
-84.84828949,-121.32318878,0.430175780000127
-84.8433075,-121.322258,0.430786140000009
-84.84490967,-121.32726288,0.430908210000098
-84.84333801,-121.31321716,0.431518560000086
-84.84403229,-121.31500244,0.431518560000086
-84.84603882,-121.299263,0.431518560000086
-84.84049988,-121.32617188,0.431640630000174
-84.84674072,-121.32993317,0.432128910000074
-84.84945679,-121.33065033,0.432495120000112
-84.84647369,-121.29611206,0.432495120000112
-84.84442902,-121.30220795,0.432617190000201
-84.83737183,-121.31950378,0.432617190000201
-84.84342957,-121.32766724,0.432739260000062
-84.83760071,-121.32521057,0.432983400000012
-84.84967804,-121.32817078,0.433227540000189
-84.84745789,-121.33100891,0.43359375
-84.84377289,-121.31465912,0.434082030000127
-84.84989929,-121.32569122,0.434082030000127
-84.83899689,-121.3270874,0.434082030000127
-84.84771729,-121.32803345,0.434570320000148
-84.84793854,-121.29859161,0.434570320000148
-84.84986877,-121.30330658,0.434936530000186
-84.83924103,-121.32437134,0.435180670000136
-84.84958649,-121.30429077,0.435302740000225
-84.84796906,-121.33158112,0.435302740000225
-84.84831238,-121.30473328,0.436035160000074
-84.84828186,-121.30573273,0.436035160000074
-84.84085846,-121.32650757,0.436035160000074
-84.83571625,-121.32485199,0.436035160000074
-84.84375763,-121.32800293,0.436157230000163
-84.84393311,-121.31632996,0.436645510000062
-84.84793091,-121.30843353,0.437133790000189
-84.84555817,-121.32791138,0.437377930000139
-84.84023285,-121.32874298,0.4375
-84.84848785,-121.32913971,0.437744140000177
-84.8445282,-121.31279755,0.437988280000127
-84.84693909,-121.33003998,0.438598640000009
-84.84208679,-121.32817078,0.439453130000174
-84.84594727,-121.31479645,0.439575200000036
-84.84654236,-121.32601166,0.439941410000074
-84.84744263,-121.33085632,0.440551760000062
-84.84445953,-121.3139267,0.441528320000089
-84.84742737,-121.31450653,0.442138670000077
-84.84706879,-121.32984924,0.442382820000148
-84.84561157,-121.31587982,0.444335940000201
-84.84771729,-121.31990814,0.445800780000127
-84.84857941,-121.31642914,0.445922850000215
-84.84899139,-121.32656097,0.447387700000036
