"X","Y","Z"
-84.9432373,-121.30796051,0.0786132800001269
-84.94847107,-121.34870148,0.0786132800001269
-84.93987274,-121.29055786,0.0787353500002155
-84.94998932,-121.32617188,0.0788574200000767
-84.94464874,-121.32124329,0.0788574200000767
-84.94300842,-121.28639984,0.0789795000000595
-84.94959259,-121.30738068,0.0789795000000595
-84.94857025,-121.31585693,0.0789795000000595
-84.94300842,-121.31556702,0.0791015700001481
-84.9446106,-121.30671692,0.0791015700001481
-84.94908905,-121.31511688,0.0792236400000093
-84.93805695,-121.34882355,0.0792236400000093
-84.94962311,-121.31413269,0.0793457100000978
-84.94777679,-121.3248291,0.0794677800001864
-84.94811249,-121.29879761,0.0795898500000476
-84.94992065,-121.3126297,0.0795898500000476
-84.94921875,-121.31085968,0.0795898500000476
-84.9486618,-121.30467224,0.0797119200001362
-84.94651794,-121.30925751,0.0797119200001362
-84.94811249,-121.31430817,0.0798339900002247
-84.9469223,-121.30245972,0.0802002000000357
-84.94777679,-121.30103302,0.0802002000000357
-84.94780731,-121.31555176,0.0802002000000357
-84.93831635,-121.33233643,0.0803222700001243
-84.94409943,-121.3221817,0.0803222700001243
-84.9467926,-121.32401276,0.0804443400002128
-84.94307709,-121.30712128,0.080566410000074
-84.94609833,-121.32198334,0.080566410000074
-84.92588806,-121.34998322,0.0808105500000238
-84.92540741,-121.34307861,0.0808105500000238
-84.92372894,-121.34877777,0.0808105500000238
-84.93501282,-121.34348297,0.0809326200001124
-84.92459106,-121.34742737,0.0809326200001124
-84.94708252,-121.29923248,0.0809326200001124
-84.94441223,-121.31990814,0.0810546900002009
-84.94966888,-121.3456192,0.0810546900002009
-84.93904877,-121.32116699,0.0811767600000621
-84.94470215,-121.31089783,0.0812988300001507
-84.94853973,-121.31578064,0.0814209000000119
-84.94638062,-121.29743195,0.0815429700001005
-84.94110107,-121.31381989,0.081665040000189
-84.94555664,-121.30741882,0.081665040000189
-84.93502045,-121.33499908,0.0821533200000886
-84.93235016,-121.34423828,0.0821533200000886
-84.90857697,-121.34661865,0.0821533200000886
-84.94326782,-121.30832672,0.0821533200000886
-84.94290161,-121.30780029,0.0825195300001269
-84.94663239,-121.30240631,0.0828857500000595
-84.94127655,-121.34677887,0.0828857500000595
-84.9450531,-121.29134369,0.0831298900000093
-84.94901276,-121.30046844,0.0832519600000978
-84.94304657,-121.34425354,0.0832519600000978
-84.94991302,-121.32727051,0.0833740300001864
-84.9486618,-121.31218719,0.0834961000000476
-84.94284058,-121.29000092,0.0834961000000476
-84.94721985,-121.30966187,0.0834961000000476
-84.94403076,-121.30754852,0.0836181700001362
-84.94264221,-121.28848267,0.0837402400002247
-84.9444809,-121.30906677,0.0837402400002247
-84.94442749,-121.31056213,0.0837402400002247
-84.94156647,-121.29045105,0.0837402400002247
-84.94806671,-121.31417847,0.0838623100000859
-84.93800354,-121.31743622,0.0841064500000357
-84.9317627,-121.33917999,0.0841064500000357
-84.94611359,-121.31345367,0.0842285200001243
-84.9413681,-121.2889328,0.0842285200001243
-84.94532776,-121.29805756,0.0843505900002128
-84.94180298,-121.34574127,0.0845947300001626
-84.94329834,-121.30609894,0.0847168000000238
-84.94213867,-121.28793335,0.0847168000000238
-84.92643738,-121.34098053,0.0848388700001124
-84.94441986,-121.31051636,0.0849609400002009
-84.94425964,-121.30776215,0.0850830100000621
-84.90393066,-121.34850311,0.0850830100000621
-84.92433167,-121.34757233,0.0854492200001005
-84.94461823,-121.2884903,0.085571290000189
-84.92855072,-121.34501648,0.0856933600000502
-84.9466629,-121.31056976,0.0858154300001388
-84.93840027,-121.31575012,0.0859375
-84.92150116,-121.34992218,0.0859375
-84.94219971,-121.29340363,0.0859375
-84.94457245,-121.30117798,0.0860595700000886
-84.94683838,-121.31092834,0.0861816400001771
-84.94805145,-121.29833984,0.0861816400001771
-84.94489288,-121.31099701,0.0863037100000383
-84.94248962,-121.28439331,0.0863037100000383
-84.94698334,-121.30805969,0.0864257800001269
-84.94538116,-121.30635834,0.0865478500002155
-84.93987274,-121.31056976,0.0865478500002155
-84.9466095,-121.29627991,0.0865478500002155
-84.94132233,-121.34416199,0.0865478500002155
-84.9492569,-121.28385162,0.0866699200000767
-84.9487381,-121.30010223,0.0866699200000767
-84.91912842,-121.3496933,0.0867920000000595
-84.92685699,-121.34268188,0.0869140700001481
-84.9499588,-121.30863953,0.0870361400000093
-84.91178894,-121.34468842,0.0870361400000093
-84.94803619,-121.29830933,0.0871582100000978
-84.94354248,-121.3059082,0.0872802800001864
-84.93666077,-121.34098053,0.0874023500000476
-84.94499969,-121.28368378,0.0876464900002247
-84.9477005,-121.30854034,0.0876464900002247
-84.94381714,-121.30465698,0.0877685600000859
-84.94645691,-121.30301666,0.0878906300001745
-84.947052,-121.29775238,0.0878906300001745
-84.92787933,-121.34168243,0.0878906300001745
-84.93907928,-121.30425262,0.0880127000000357
-84.93122101,-121.3467865,0.0880127000000357
-84.93566895,-121.34042358,0.0881347700001243
-84.94638062,-121.31246948,0.0885009800001626
-84.93103027,-121.33200073,0.0885009800001626
-84.94580841,-121.29694366,0.0885009800001626
-84.93662262,-121.31218719,0.0886230500000238
-84.93408203,-121.32089233,0.0886230500000238
-84.94728088,-121.2824707,0.0886230500000238
-84.94425964,-121.30639648,0.0886230500000238
-84.94026947,-121.30886841,0.0887451200001124
-84.94461823,-121.31066132,0.0887451200001124
-84.90747833,-121.34574127,0.0887451200001124
-84.94471741,-121.30078888,0.0888671900002009
-84.90573883,-121.34668732,0.0888671900002009
-84.94779205,-121.29836273,0.0889892600000621
-84.94895172,-121.30027771,0.0889892600000621
-84.92929077,-121.3441925,0.0889892600000621
-84.92743683,-121.34422302,0.0891113300001507
-84.9487915,-121.3132782,0.0891113300001507
-84.94004059,-121.30499268,0.0892334000000119
-84.92314911,-121.34824371,0.0892334000000119
-84.93166351,-121.34825897,0.0893554700001005
-84.92588806,-121.34857178,0.0893554700001005
-84.94207001,-121.30284119,0.0895996100000502
-84.91719055,-121.34677887,0.0895996100000502
-84.94525909,-121.3451767,0.08984375
-84.94374084,-121.27098846,0.08984375
-84.94796753,-121.29946899,0.0899658200000886
-84.94509888,-121.31088257,0.0899658200000886
-84.94056702,-121.28845978,0.0899658200000886
-84.94822693,-121.27880096,0.0900878900001771
-84.9467392,-121.30641937,0.0903320300001269
-84.94896698,-121.31475067,0.0904541000002155
-84.92449951,-121.33698273,0.0904541000002155
-84.90297699,-121.34503937,0.0904541000002155
-84.94628143,-121.31289673,0.0905761700000767
-84.93164063,-121.34822083,0.0905761700000767
-84.94714355,-121.34866333,0.0905761700000767
-84.94207001,-121.28022766,0.0906982500000595
-84.92989349,-121.32781219,0.0908203200001481
-84.94848633,-121.30426788,0.0909423900000093
-84.93237305,-121.31884766,0.0910644600000978
-84.94174194,-121.29046631,0.0910644600000978
-84.92662048,-121.34078217,0.0910644600000978
-84.92980194,-121.34313202,0.0911865300001864
-84.92652893,-121.34352875,0.0911865300001864
-84.92764282,-121.34030914,0.0913086000000476
-84.94381714,-121.30393982,0.0914306700001362
-84.92140961,-121.34973145,0.0914306700001362
-84.94754791,-121.2985611,0.0915527400002247
-84.94454956,-121.28077698,0.0915527400002247
-84.94304657,-121.2884903,0.0915527400002247
-84.9260788,-121.34200287,0.0915527400002247
-84.908638,-121.34768677,0.0915527400002247
-84.9254837,-121.34349823,0.0917968800001745
-84.94573975,-121.29808044,0.0917968800001745
-84.94748688,-121.30589294,0.0919189500000357
-84.94674683,-121.31336975,0.0920410200001243
-84.94966125,-121.30014801,0.0921630900002128
-84.90197754,-121.3444519,0.0921630900002128
-84.92713165,-121.3400116,0.092285160000074
-84.90490723,-121.34654999,0.092285160000074
-84.94548798,-121.30554962,0.0927734400002009
-84.92758179,-121.34150696,0.0927734400002009
-84.93392944,-121.32151794,0.0928955100000621
-84.94470215,-121.291008,0.0928955100000621
-84.94493866,-121.29956055,0.0930175800001507
-84.94756317,-121.27249146,0.093383790000189
-84.94033813,-121.30815887,0.0935058600000502
-84.94992065,-121.30741119,0.09375
-84.94146729,-121.29012299,0.09375
-84.94703674,-121.29985809,0.0938720700000886
-84.94346619,-121.30570221,0.0938720700000886
-84.91848755,-121.34368134,0.0938720700000886
-84.92352295,-121.34152985,0.0939941400001771
-84.92137146,-121.34963989,0.0939941400001771
-84.89946747,-121.34406281,0.0941162100000383
-84.9451828,-121.29122162,0.0943603500002155
-84.9471817,-121.30680084,0.0943603500002155
-84.9315567,-121.34158325,0.0943603500002155
-84.94127655,-121.34265137,0.0944824200000767
-84.94872284,-121.28206635,0.0946045000000595
-84.94867706,-121.29107666,0.0946045000000595
-84.94425201,-121.30470276,0.0946045000000595
-84.93103027,-121.34255981,0.0946045000000595
-84.94602966,-121.28022766,0.0947265700001481
-84.91126251,-121.34266663,0.0947265700001481
-84.93002319,-121.32736206,0.0949707100000978
-84.94564819,-121.28395844,0.0950927800001864
-84.92474365,-121.33763123,0.0955810600000859
-84.9434433,-121.28262329,0.0955810600000859
-84.93212128,-121.33930969,0.0955810600000859
-84.94609833,-121.30322266,0.0955810600000859
-84.94412994,-121.30078888,0.0955810600000859
-84.94962311,-121.30058289,0.0957031300001745
-84.91725922,-121.3425827,0.0957031300001745
-84.94313049,-121.2923584,0.0958252000000357
-84.94409943,-121.27736664,0.0959472700001243
-84.94577026,-121.29569244,0.0960693400002128
-84.94512177,-121.2924118,0.096191410000074
-84.91487122,-121.34674072,0.096191410000074
-84.9489975,-121.28852844,0.0963134800001626
-84.94037628,-121.34111786,0.0964355500000238
-84.94734955,-121.30760956,0.0965576200001124
-84.94641876,-121.30191803,0.0966796900002009
-84.9392395,-121.3115921,0.0966796900002009
-84.92572784,-121.3338089,0.0966796900002009
-84.91957855,-121.34011841,0.0966796900002009
-84.94243622,-121.30734253,0.0968017600000621
-84.92700958,-121.34236145,0.0968017600000621
-84.91233826,-121.34738922,0.0969238300001507
-84.94947815,-121.28101349,0.0970459000000119
-84.94907379,-121.29376984,0.0970459000000119
-84.93113708,-121.33036804,0.0971679700001005
-84.94412994,-121.29184723,0.0971679700001005
-84.91972351,-121.34551239,0.097290040000189
-84.94384003,-121.29283142,0.0974121100000502
-84.94486237,-121.27658844,0.09765625
-84.90249634,-121.34980011,0.09765625
-84.94593048,-121.26098633,0.09765625
-84.94960022,-121.30827332,0.0977783200000886
-84.94924164,-121.30078125,0.0979003900001771
-84.90313721,-121.34529877,0.0979003900001771
-84.9432373,-121.3050766,0.0981445300001269
-84.91702271,-121.34925079,0.0982666000002155
-84.9033432,-121.34654999,0.0982666000002155
-84.93991852,-121.30882263,0.0985107500000595
-84.94914246,-121.29897308,0.0986328200001481
-84.92069244,-121.34359741,0.0986328200001481
-84.94779205,-121.28640747,0.0987548900000093
-84.93695068,-121.3436203,0.0987548900000093
-84.94930267,-121.28755188,0.0987548900000093
-84.94983673,-121.3082428,0.0989990300001864
-84.94219208,-121.30499268,0.0989990300001864
-84.94664001,-121.30638123,0.0991211000000476
-84.92510986,-121.33587646,0.0992431700001362
-84.94728851,-121.29389191,0.0992431700001362
-84.93138885,-121.32920837,0.0993652400002247
-84.94657898,-121.2845993,0.0993652400002247
-84.94235992,-121.29171753,0.0993652400002247
-84.9176178,-121.34573364,0.0993652400002247
-84.90141296,-121.34394836,0.0993652400002247
-84.91056824,-121.34577942,0.0996093800001745
-84.91851044,-121.34899902,0.0997314500000357
-84.94843292,-121.29715729,0.0998535200001243
-84.91937256,-121.34552002,0.0998535200001243
-84.94931793,-121.2628479,0.0999755900002128
-84.9131012,-121.34446716,0.100097660000074
-84.91407013,-121.34912872,0.100097660000074
-84.94483185,-121.28452301,0.100097660000074
-84.92668152,-121.3434906,0.100097660000074
-84.94740295,-121.26625824,0.100097660000074
-84.93576813,-121.3423996,0.100097660000074
-84.94113159,-121.34519958,0.100341800000024
-84.91661835,-121.34516144,0.100341800000024
-84.94806671,-121.2905426,0.100341800000024
-84.94023132,-121.3079071,0.100463870000112
-84.92616272,-121.33970642,0.100463870000112
-84.94883728,-121.27638245,0.100463870000112
-84.92178345,-121.34031677,0.100463870000112
-84.91854858,-121.34747314,0.100463870000112
-84.94847107,-121.29563141,0.100585940000201
-84.92144775,-121.34281158,0.100585940000201
-84.94801331,-121.2943573,0.100708010000062
-84.94996643,-121.28791046,0.100830080000151
-84.91886902,-121.34522247,0.100830080000151
-84.94843292,-121.3031311,0.100952150000012
-84.9493866,-121.29789734,0.1010742200001
-84.94387817,-121.30597687,0.1010742200001
-84.90274811,-121.34844208,0.1010742200001
-84.90171814,-121.34940338,0.10131836000005
-84.94271088,-121.30634308,0.101440430000139
-84.92800903,-121.33392334,0.101440430000139
-84.92028046,-121.34343719,0.101440430000139
-84.94828796,-121.29309082,0.101440430000139
-84.9414978,-121.30300903,0.1015625
-84.91078186,-121.34439087,0.1015625
-84.92772675,-121.34147644,0.1015625
-84.94698334,-121.29985809,0.1015625
-84.92285919,-121.34506989,0.101684570000089
-84.94644165,-121.3009491,0.101806640000177
-84.89951324,-121.34781647,0.101806640000177
-84.94966125,-121.29924774,0.102050780000127
-84.94467926,-121.27268982,0.102050780000127
-84.94864655,-121.27380371,0.102539070000148
-84.90827179,-121.34732056,0.102539070000148
-84.94885254,-121.27529907,0.102661140000009
-84.89832306,-121.34549713,0.102661140000009
-84.9496994,-121.29534912,0.102783210000098
-84.90151215,-121.34760284,0.102783210000098
-84.93592072,-121.31305695,0.102905280000186
-84.93534851,-121.3451767,0.103027350000048
-84.91520691,-121.34928131,0.103027350000048
-84.90019226,-121.34954834,0.103027350000048
-84.94174194,-121.31771851,0.103149420000136
-84.90503693,-121.34755707,0.103149420000136
-84.92256927,-121.33799744,0.103149420000136
-84.93224335,-121.32607269,0.103271490000225
-84.91229248,-121.34681702,0.103271490000225
-84.92314148,-121.34250641,0.103515630000174
-84.94671631,-121.29447937,0.103515630000174
-84.94213104,-121.28157043,0.103515630000174
-84.90120697,-121.34880829,0.103515630000174
-84.9467926,-121.29222107,0.103637700000036
-84.94940948,-121.27303314,0.103759770000124
-84.94699097,-121.2859726,0.103759770000124
-84.90055084,-121.34577942,0.103759770000124
-84.90763092,-121.34776306,0.103881840000213
-84.91397095,-121.34845734,0.103881840000213
-84.94434357,-121.29064178,0.103881840000213
-84.94721985,-121.34902954,0.104003910000074
-84.93240356,-121.34329987,0.104003910000074
-84.92318726,-121.34951019,0.104003910000074
-84.91040039,-121.34513092,0.104125980000163
-84.94458008,-121.2751236,0.104125980000163
-84.94306946,-121.29109192,0.104125980000163
-84.94416809,-121.2723465,0.104248050000024
-84.94494629,-121.2793808,0.104248050000024
-84.94026947,-121.34729767,0.104370120000112
-84.90042114,-121.34976196,0.104370120000112
-84.92835236,-121.33934784,0.104492190000201
-84.94949341,-121.30930328,0.104492190000201
-84.94180298,-121.30947113,0.104614260000062
-84.94278717,-121.29206085,0.104614260000062
-84.9256897,-121.34957123,0.104614260000062
-84.94035339,-121.30619049,0.104736330000151
-84.9487915,-121.29199982,0.104736330000151
-84.93670654,-121.31078339,0.104858400000012
-84.94911194,-121.29750824,0.104858400000012
-84.91078186,-121.34632874,0.104858400000012
-84.92430878,-121.34516144,0.104858400000012
-84.94412231,-121.28132629,0.1049804700001
-84.94821167,-121.2942276,0.1049804700001
-84.9204483,-121.34889221,0.1049804700001
-84.94407654,-121.27481842,0.105102540000189
-84.93978119,-121.34676361,0.105102540000189
-84.92368317,-121.34973907,0.105102540000189
-84.94767761,-121.29519653,0.10522461000005
-84.93846893,-121.30451202,0.105346680000139
-84.94988251,-121.27324677,0.105346680000139
-84.92626953,-121.3392334,0.10546875
-84.94317627,-121.27153015,0.10546875
-84.93171692,-121.31996155,0.105590820000089
-84.94805145,-121.2914505,0.105590820000089
-84.90007782,-121.34420013,0.105590820000089
-84.9471817,-121.27940369,0.105712890000177
-84.94407654,-121.29031372,0.105834960000038
-84.89710999,-121.34335327,0.105834960000038
-84.94624329,-121.28536987,0.105957030000127
-84.90287781,-121.34712982,0.106079100000215
-84.92220306,-121.34866333,0.106079100000215
-84.947258,-121.2924118,0.106201170000077
-84.92273712,-121.33940887,0.106201170000077
-84.93347168,-121.31369019,0.106323250000059
-84.94908905,-121.27419281,0.106323250000059
-84.94358063,-121.27451324,0.106323250000059
-84.94304657,-121.291008,0.106323250000059
-84.89768982,-121.34921265,0.106567390000009
-84.89990997,-121.34916687,0.106567390000009
-84.94364929,-121.27200317,0.106689460000098
-84.94593811,-121.27857971,0.106689460000098
-84.89697266,-121.34732056,0.106689460000098
-84.94609833,-121.28134155,0.106811530000186
-84.94255066,-121.27520752,0.106811530000186
-84.9431076,-121.31217957,0.106933600000048
-84.94901276,-121.29219055,0.106933600000048
-84.94619751,-121.2940979,0.106933600000048
-84.92027283,-121.34606934,0.106933600000048
-84.92681885,-121.33701324,0.107055670000136
-84.93836975,-121.25605774,0.107055670000136
-84.89974213,-121.34638977,0.107177740000225
-84.94454956,-121.29077911,0.107299810000086
-84.90003967,-121.34945679,0.107421880000174
-84.94332123,-121.27422333,0.107543950000036
-84.94818878,-121.29414368,0.107543950000036
-84.94107819,-121.31104279,0.107666020000124
-84.94882965,-121.27388,0.107788090000213
-84.94062042,-121.27261353,0.107910160000074
-84.91683197,-121.34671021,0.108032230000163
-84.94940186,-121.28740692,0.108032230000163
-84.94293976,-121.27017975,0.108154300000024
-84.92990112,-121.34958649,0.108154300000024
-84.94593048,-121.29405212,0.108276370000112
-84.89837646,-121.34181213,0.108276370000112
-84.91945648,-121.34648132,0.108276370000112
-84.94875336,-121.28411865,0.108398440000201
-84.94924164,-121.2921524,0.108398440000201
-84.94789124,-121.27958679,0.108520510000062
-84.94821167,-121.28534698,0.108520510000062
-84.9286499,-121.3225174,0.108642580000151
-84.9454422,-121.27799988,0.108642580000151
-84.91748047,-121.34667206,0.108642580000151
-84.9436264,-121.2611618,0.108642580000151
-84.92305756,-121.34233093,0.108764650000012
-84.94877625,-121.28311157,0.1088867200001
-84.94956207,-121.2976532,0.1088867200001
-84.94445801,-121.29297638,0.1088867200001
-84.94268799,-121.26989746,0.1088867200001
-84.94313049,-121.31234741,0.109008790000189
-84.93112946,-121.31482697,0.10913086000005
-84.93798828,-121.31468201,0.109252930000139
-84.938797,-121.34458923,0.109252930000139
-84.92592621,-121.34816742,0.109252930000139
-84.9289093,-121.34877014,0.109375
-84.92249298,-121.34919739,0.109375
-84.94551086,-121.3041687,0.109497070000089
-84.94077301,-121.27507019,0.109497070000089
-84.94705963,-121.28177643,0.109619140000177
-84.93179321,-121.31926727,0.109741210000038
-84.94909668,-121.27258301,0.109741210000038
-84.91812897,-121.34165192,0.109741210000038
-84.94803619,-121.27454376,0.109863280000127
-84.93187714,-121.34960175,0.109863280000127
-84.89752197,-121.34472656,0.109863280000127
-84.94859314,-121.25640106,0.109863280000127
-84.94689178,-121.27124786,0.109985350000215
-84.94745636,-121.2925415,0.109985350000215
-84.92523193,-121.34638214,0.109985350000215
-84.92249298,-121.34603882,0.109985350000215
-84.91562653,-121.34130859,0.109985350000215
-84.94320679,-121.25205231,0.109985350000215
-84.93193054,-121.34008026,0.110107420000077
-84.94081116,-121.31227112,0.110229500000059
-84.92984772,-121.30995178,0.110229500000059
-84.94946289,-121.28459167,0.110229500000059
-84.93929291,-121.27424622,0.110229500000059
-84.94397736,-121.34673309,0.110229500000059
-84.90827179,-121.34456635,0.110229500000059
-84.91371155,-121.33872986,0.110351570000148
-84.90421295,-121.34259796,0.110473640000009
-84.91693115,-121.34609222,0.110473640000009
-84.94689178,-121.2789917,0.110473640000009
-84.9451828,-121.2934494,0.110473640000009
-84.9484787,-121.28404236,0.110717780000186
-84.94844818,-121.29380035,0.110839850000048
-84.94830322,-121.28153229,0.110839850000048
-84.94471741,-121.29192352,0.110839850000048
-84.94915009,-121.34887695,0.110839850000048
-84.93141174,-121.30397034,0.110961920000136
-84.92472839,-121.34607697,0.110961920000136
-84.93086243,-121.31481171,0.111083990000225
-84.93045044,-121.34700775,0.111083990000225
-84.92356873,-121.34539795,0.111083990000225
-84.94789886,-121.27049255,0.111206060000086
-84.9292984,-121.34371948,0.111206060000086
-84.94125366,-121.29078674,0.111328130000174
-84.94029236,-121.3443222,0.111328130000174
-84.91909027,-121.34237671,0.111328130000174
-84.94687653,-121.27120209,0.111450200000036
-84.93862152,-121.2711792,0.111450200000036
-84.92755127,-121.34770966,0.111450200000036
-84.91950989,-121.34500122,0.111572270000124
-84.90689087,-121.34940338,0.111694340000213
-84.94994354,-121.29255676,0.111694340000213
-84.94539642,-121.29367065,0.111694340000213
-84.9439621,-121.34667969,0.111694340000213
-84.94822693,-121.25997925,0.111694340000213
-84.93264771,-121.30010223,0.111816410000074
-84.92182159,-121.34629822,0.111816410000074
-84.91596985,-121.34577179,0.111816410000074
-84.91520691,-121.33822632,0.111816410000074
-84.93161774,-121.34927368,0.111938480000163
-84.94841766,-121.26972198,0.112182620000112
-84.93611908,-121.34140015,0.112182620000112
-84.92549133,-121.3453064,0.112182620000112
-84.91467285,-121.33946228,0.112182620000112
-84.9070282,-121.34371185,0.112182620000112
-84.94412994,-121.30869293,0.112304690000201
-84.9317627,-121.31918335,0.112304690000201
-84.9058075,-121.34423828,0.112304690000201
-84.94625092,-121.26689911,0.112304690000201
-84.94302368,-121.26628876,0.112304690000201
-84.90110779,-121.34877014,0.112304690000201
-84.9390564,-121.26490784,0.112426760000062
-84.94139099,-121.27825165,0.112426760000062
-84.94077301,-121.27397156,0.112548830000151
-84.91678619,-121.34352112,0.112548830000151
-84.91584778,-121.34147644,0.112670900000012
-84.93203735,-121.32549286,0.1127929700001
-84.94171906,-121.29125977,0.1127929700001
-84.94142151,-121.33748627,0.1127929700001
-84.94792175,-121.26943207,0.112915040000189
-84.94972229,-121.2835083,0.112915040000189
-84.94342804,-121.27680206,0.112915040000189
-84.93978882,-121.27317047,0.112915040000189
-84.91796112,-121.34580231,0.112915040000189
-84.92794037,-121.33885956,0.11303711000005
-84.92617798,-121.33905029,0.11303711000005
-84.93830872,-121.31268311,0.113159180000139
-84.92714691,-121.3441925,0.113159180000139
-84.94889069,-121.34854126,0.11328125
-84.92297363,-121.33348083,0.113403320000089
-84.94167328,-121.26921844,0.113403320000089
-84.94239807,-121.27749634,0.113403320000089
-84.94077301,-121.25267029,0.113403320000089
-84.94963074,-121.29374695,0.113525390000177
-84.94145966,-121.27545929,0.113525390000177
-84.94998932,-121.26696777,0.113647460000038
-84.94774628,-121.28217316,0.113647460000038
-84.9451828,-121.292099,0.113647460000038
-84.93921661,-121.31706238,0.113769530000127
-84.935112,-121.32430267,0.113769530000127
-84.91947174,-121.33750916,0.113769530000127
-84.91442871,-121.34648132,0.113769530000127
-84.94680786,-121.28038025,0.113769530000127
-84.94273376,-121.29051208,0.113769530000127
-84.92996979,-121.30084229,0.113891600000215
-84.9272995,-121.31008148,0.113891600000215
-84.94790649,-121.2926712,0.113891600000215
-84.93385315,-121.34928131,0.113891600000215
-84.94777679,-121.26538849,0.114013670000077
-84.93798065,-121.29035187,0.114013670000077
-84.93200684,-121.34396362,0.114013670000077
-84.92481232,-121.31900787,0.114135750000059
-84.93888092,-121.26985168,0.114135750000059
-84.94194794,-121.29148102,0.114135750000059
-84.93213654,-121.33995819,0.114135750000059
-84.9240036,-121.34420013,0.114135750000059
-84.91551208,-121.33590698,0.114257820000148
-84.94111633,-121.27017212,0.114379890000009
-84.93266296,-121.33921814,0.114379890000009
-84.94048309,-121.34068298,0.114379890000009
-84.943573,-121.27974701,0.114501960000098
-84.93974304,-121.28988647,0.114501960000098
-84.9135437,-121.33457947,0.114746100000048
-84.93005371,-121.34262085,0.114868170000136
-84.94377136,-121.2809906,0.114990240000225
-84.92888641,-121.32145691,0.115112310000086
-84.93939972,-121.26908875,0.115112310000086
-84.93089294,-121.34739685,0.115112310000086
-84.92427826,-121.34293365,0.115112310000086
-84.91921234,-121.34500885,0.115112310000086
-84.94283295,-121.27896118,0.115234380000174
-84.91838837,-121.34723663,0.115234380000174
-84.91532135,-121.34342194,0.115356450000036
-84.94969177,-121.26790619,0.115356450000036
-84.94503021,-121.29714203,0.115478520000124
-84.9039917,-121.34295654,0.115478520000124
-84.91728973,-121.34243774,0.115478520000124
-84.92037964,-121.34729004,0.115478520000124
-84.90514374,-121.34603882,0.115600590000213
-84.93367004,-121.34647369,0.115600590000213
-84.93215179,-121.3469162,0.115600590000213
-84.94605255,-121.26428223,0.115722660000074
-84.94866943,-121.28388214,0.115722660000074
-84.93997192,-121.29010773,0.115722660000074
-84.9487381,-121.26611328,0.115844730000163
-84.94490814,-121.29200745,0.115844730000163
-84.94740295,-121.29234314,0.115966800000024
-84.91152954,-121.33448029,0.115966800000024
-84.94519043,-121.291008,0.116088870000112
-84.94181061,-121.27162933,0.116210940000201
-84.92725372,-121.3434906,0.116210940000201
-84.93167114,-121.33837128,0.116333010000062
-84.94555664,-121.32418823,0.116333010000062
-84.90094757,-121.34558868,0.116455080000151
-84.94583893,-121.27825928,0.116455080000151
-84.94098663,-121.25256348,0.116455080000151
-84.94400024,-121.28119659,0.116577150000012
-84.94441986,-121.29147339,0.116577150000012
-84.93778992,-121.32132721,0.1166992200001
-84.94297791,-121.28942108,0.116821290000189
-84.93135834,-121.34760284,0.116821290000189
-84.9466095,-121.27751923,0.11694336000005
-84.94110107,-121.27008057,0.11694336000005
-84.9229126,-121.326828,0.11694336000005
-84.91654205,-121.33953094,0.117065430000139
-84.94541931,-121.27546692,0.117065430000139
-84.92764282,-121.33872223,0.117065430000139
-84.92706299,-121.34105682,0.117065430000139
-84.91251373,-121.34470367,0.1171875
-84.94100952,-121.28833771,0.1171875
-84.92745209,-121.33695221,0.1171875
-84.92140198,-121.33850861,0.1171875
-84.93974304,-121.31478119,0.117309570000089
-84.94268799,-121.29064178,0.117309570000089
-84.93270874,-121.34438324,0.117309570000089
-84.93193054,-121.3453598,0.117309570000089
-84.9353714,-121.34745789,0.117431640000177
-84.90502167,-121.34223175,0.117431640000177
-84.94541168,-121.28346252,0.117675780000127
-84.93540955,-121.27562714,0.117797850000215
-84.94992065,-121.27758026,0.117797850000215
-84.94132996,-121.33434296,0.117797850000215
-84.94435883,-121.29155731,0.118042000000059
-84.94097137,-121.28930664,0.118042000000059
-84.89962769,-121.34603119,0.118164070000148
-84.90264893,-121.34645081,0.118286140000009
-84.94255829,-121.27082825,0.118408210000098
-84.94181824,-121.27832031,0.118408210000098
-84.92726898,-121.34217072,0.118408210000098
-84.92286682,-121.31719971,0.118530280000186
-84.94764709,-121.28778076,0.118652350000048
-84.94312286,-121.26107788,0.118652350000048
-84.93434143,-121.34013367,0.118652350000048
-84.94545746,-121.27391815,0.118774420000136
-84.94924927,-121.28029633,0.118774420000136
-84.94805908,-121.28627014,0.118774420000136
-84.93428802,-121.26329041,0.118896490000225
-84.94004059,-121.30647278,0.119018560000086
-84.90057373,-121.34633636,0.119018560000086
-84.94703674,-121.26345062,0.119018560000086
-84.94634247,-121.26191711,0.119140630000174
-84.94712067,-121.27645874,0.119140630000174
-84.94690704,-121.34577942,0.119140630000174
-84.93534851,-121.33965302,0.119140630000174
-84.94503021,-121.27913666,0.119262700000036
-84.92582703,-121.33984375,0.119262700000036
-84.91668701,-121.33628845,0.119262700000036
-84.91275787,-121.34353638,0.119384770000124
-84.93739319,-121.27562714,0.119506840000213
-84.9155426,-121.3421936,0.119628910000074
-84.92949677,-121.34220123,0.119628910000074
-84.94863892,-121.28395844,0.119750980000163
-84.91192627,-121.34413147,0.119750980000163
-84.93353271,-121.32924652,0.119873050000024
-84.92649078,-121.34451294,0.119873050000024
-84.94110107,-121.26123047,0.119873050000024
-84.93383026,-121.33982849,0.119873050000024
-84.9460907,-121.25688171,0.119873050000024
-84.93908691,-121.29334259,0.119995120000112
-84.94937134,-121.29203033,0.119995120000112
-84.91840363,-121.3326416,0.120117190000201
-84.94657135,-121.2618866,0.120361330000151
-84.94290161,-121.25952148,0.120361330000151
-84.94156647,-121.28437805,0.120483400000012
-84.93966675,-121.29856873,0.120483400000012
-84.94374847,-121.27955627,0.120483400000012
-84.92111206,-121.3463974,0.120483400000012
-84.94439697,-121.25930786,0.1206054700001
-84.94419861,-121.34388733,0.1206054700001
-84.92163849,-121.32138062,0.1206054700001
-84.9249115,-121.32589722,0.120727540000189
-84.94470215,-121.27333069,0.120727540000189
-84.92337036,-121.33821106,0.120727540000189
-84.89665222,-121.34349823,0.12084961000005
-84.90218353,-121.34797668,0.12084961000005
-84.90297699,-121.32913971,0.12084961000005
-84.91358948,-121.34024048,0.120971680000139
-84.94880676,-121.26219177,0.120971680000139
-84.9387207,-121.26461792,0.120971680000139
-84.93119812,-121.32774353,0.120971680000139
-84.92259216,-121.3184433,0.12109375
-84.94812012,-121.27568054,0.12109375
-84.94792175,-121.26541138,0.12109375
-84.94979858,-121.27797699,0.121215820000089
-84.90968323,-121.34375763,0.121215820000089
-84.91712952,-121.34381104,0.121215820000089
-84.94696808,-121.28038788,0.121337890000177
-84.94529724,-121.27783203,0.121459960000038
-84.94428253,-121.27854919,0.121459960000038
-84.94013977,-121.25914001,0.121582030000127
-84.92952728,-121.33387756,0.121582030000127
-84.90820313,-121.34294128,0.121704100000215
-84.92391205,-121.33831787,0.121826170000077
-84.93470001,-121.34304047,0.121948250000059
-84.92028046,-121.34832764,0.121948250000059
-84.9469223,-121.25833893,0.122070320000148
-84.9148407,-121.34615326,0.122070320000148
-84.90879059,-121.34911346,0.122192390000009
-84.8971405,-121.3443222,0.122192390000009
-84.91773224,-121.32579041,0.122314460000098
-84.94287109,-121.25969696,0.122314460000098
-84.93752289,-121.26252747,0.122314460000098
-84.93882751,-121.27633667,0.122314460000098
-84.94685364,-121.27610016,0.122436530000186
-84.90944672,-121.34246063,0.122436530000186
-84.94132233,-121.2766571,0.122558600000048
-84.91786957,-121.33721924,0.122558600000048
-84.94509125,-121.27628326,0.122680670000136
-84.94625854,-121.27857208,0.122680670000136
-84.93122101,-121.34214783,0.122680670000136
-84.91963196,-121.33702087,0.122680670000136
-84.93238068,-121.33244324,0.122802740000225
-84.94537354,-121.27528381,0.122802740000225
-84.93977356,-121.29794312,0.122924810000086
-84.92160797,-121.32852936,0.122924810000086
-84.9495697,-121.26114655,0.122924810000086
-84.91953278,-121.34777069,0.122924810000086
-84.89839172,-121.33323669,0.122924810000086
-84.940979,-121.30254364,0.123046880000174
-84.94612885,-121.2590332,0.123046880000174
-84.94786835,-121.28653717,0.123168950000036
-84.93837738,-121.34468079,0.123168950000036
-84.9102478,-121.34391022,0.123291020000124
-84.94689941,-121.25830078,0.123291020000124
-84.94882202,-121.34477997,0.123291020000124
-84.9239502,-121.3325882,0.123291020000124
-84.91982269,-121.34606171,0.123291020000124
-84.90184784,-121.34896851,0.123413090000213
-84.93927002,-121.26230621,0.123413090000213
-84.945961,-121.27979279,0.123535160000074
-84.91864014,-121.3364563,0.123535160000074
-84.91687775,-121.33664703,0.123535160000074
-84.94528198,-121.27776337,0.123657230000163
-84.94148254,-121.27137756,0.123657230000163
-84.92558289,-121.33818054,0.123779300000024
-84.93726349,-121.26248169,0.123901370000112
-84.90245819,-121.34944153,0.123901370000112
-84.94387054,-121.25892639,0.124023440000201
-84.94264221,-121.29704285,0.124145510000062
-84.89803314,-121.33798218,0.124145510000062
-84.93852997,-121.2617569,0.124145510000062
-84.94023132,-121.34139252,0.124267580000151
-84.9108963,-121.34345245,0.124267580000151
-84.91928101,-121.34747314,0.124267580000151
-84.94738007,-121.25984192,0.124389650000012
-84.93186188,-121.32507324,0.1245117200001
-84.94275665,-121.26213074,0.124633790000189
-84.93795013,-121.26396942,0.124633790000189
-84.94223785,-121.27062225,0.124633790000189
-84.896492,-121.34020996,0.12475586000005
-84.90162659,-121.34179688,0.124877930000139
-84.94889069,-121.25830841,0.124877930000139
-84.93717194,-121.26493835,0.124877930000139
-84.93978882,-121.26902771,0.124877930000139
-84.93916321,-121.2926178,0.125
-84.91065216,-121.34223175,0.125
-84.94774628,-121.27803802,0.125
-84.93414307,-121.34391785,0.125
-84.93662262,-121.29390717,0.125244140000177
-84.94447327,-121.25540924,0.125244140000177
-84.94297028,-121.2633667,0.125244140000177
-84.92830658,-121.33753204,0.125366210000038
-84.94132996,-121.2598114,0.125366210000038
-84.94320679,-121.27912903,0.125488280000127
-84.92604828,-121.33863831,0.125488280000127
-84.91876984,-121.34716797,0.125488280000127
-84.89730072,-121.34597015,0.125488280000127
-84.89945984,-121.34120941,0.125610350000215
-84.89517975,-121.34030151,0.125732420000077
-84.94390869,-121.27288818,0.125732420000077
-84.94745636,-121.27900696,0.125732420000077
-84.94544983,-121.27944946,0.125732420000077
-84.9233017,-121.34629822,0.125732420000077
-84.90072632,-121.34806824,0.125732420000077
-84.94299316,-121.2545929,0.125854500000059
-84.89234161,-121.34139252,0.125976570000148
-84.9059906,-121.33997345,0.126098640000009
-84.9019928,-121.33985138,0.126098640000009
-84.92971802,-121.31728363,0.126220710000098
-84.92429352,-121.33856201,0.126220710000098
-84.89672089,-121.34042358,0.126220710000098
-84.92867279,-121.32821655,0.126342780000186
-84.94126892,-121.26126862,0.126342780000186
-84.94519043,-121.26364136,0.126708990000225
-84.93390656,-121.34261322,0.126708990000225
-84.89723969,-121.3394165,0.126708990000225
-84.94452667,-121.25309753,0.126831060000086
-84.93685913,-121.3444519,0.126831060000086
-84.88758087,-121.33660126,0.126831060000086
-84.91008759,-121.33886719,0.126831060000086
-84.9447937,-121.28907776,0.126953130000174
-84.94393158,-121.26409149,0.126953130000174
-84.94490814,-121.28014374,0.126953130000174
-84.9422226,-121.27053833,0.126953130000174
-84.92304993,-121.33799744,0.126953130000174
-84.89215088,-121.34224701,0.126953130000174
-84.94139862,-121.30101776,0.127075200000036
-84.93138123,-121.31179047,0.127075200000036
-84.94621277,-121.25514984,0.127197270000124
-84.89247894,-121.32888794,0.127197270000124
-84.9493866,-121.25724792,0.127319340000213
-84.94412994,-121.27310181,0.127319340000213
-84.94286346,-121.26579285,0.127563480000163
-84.92999268,-121.33995056,0.127563480000163
-84.91383362,-121.3391571,0.127685550000024
-84.94438171,-121.26532745,0.127807620000112
-84.9225769,-121.34445953,0.127929690000201
-84.9210434,-121.33789825,0.127929690000201
-84.90380096,-121.33734131,0.127929690000201
-84.89990234,-121.33973694,0.128051760000062
-84.92349243,-121.33947754,0.128051760000062
-84.89772797,-121.34739685,0.128051760000062
-84.90677643,-121.3482666,0.128173830000151
-84.90106201,-121.34409332,0.128173830000151
-84.94570923,-121.25485229,0.128173830000151
-84.91863251,-121.34632111,0.128295900000012
-84.94380188,-121.26754761,0.128295900000012
-84.92272186,-121.34018707,0.128295900000012
-84.89189148,-121.34220123,0.128295900000012
-84.94534302,-121.28687286,0.1284179700001
-84.9017334,-121.34854889,0.1284179700001
-84.94219971,-121.27050018,0.1284179700001
-84.94239807,-121.25647736,0.12866211000005
-84.94125366,-121.26119995,0.12866211000005
-84.92263031,-121.34293365,0.12866211000005
-84.94586945,-121.26509857,0.128784180000139
-84.94387817,-121.26502991,0.128784180000139
-84.91339111,-121.34237671,0.128784180000139
-84.93556976,-121.31237793,0.12890625
-84.90886688,-121.34117126,0.129028320000089
-84.94516754,-121.26357269,0.129028320000089
-84.92597198,-121.34777832,0.129028320000089
-84.89746857,-121.34710693,0.129028320000089
-84.91155243,-121.33931732,0.129150390000177
-84.94448853,-121.26928711,0.129150390000177
-84.90193939,-121.33193207,0.129150390000177
-84.94798279,-121.34774017,0.129272460000038
-84.93707275,-121.34462738,0.129272460000038
-84.92073059,-121.3473587,0.129272460000038
-84.94554138,-121.2675705,0.129394530000127
-84.94149017,-121.26894379,0.129394530000127
-84.94931793,-121.34477234,0.129394530000127
-84.89453125,-121.34525299,0.129394530000127
-84.93901062,-121.26834869,0.129516600000215
-84.9063797,-121.34635925,0.129516600000215
-84.91500854,-121.34369659,0.129638670000077
-84.94242859,-121.27071381,0.129638670000077
-84.9046402,-121.34181976,0.129638670000077
-84.93415833,-121.3019104,0.129760750000059
-84.94828033,-121.27539825,0.129882820000148
-84.92768097,-121.34079742,0.129882820000148
-84.89272308,-121.33892059,0.129882820000148
-84.94561768,-121.26003265,0.129882820000148
-84.92887115,-121.34703064,0.129882820000148
-84.94561005,-121.2650528,0.130004890000009
-84.89891815,-121.34062195,0.130004890000009
-84.91538239,-121.3469696,0.130004890000009
-84.90379333,-121.33702087,0.130249030000186
-84.89546204,-121.34700775,0.130249030000186
-84.94747925,-121.34181213,0.130493170000136
-84.94098663,-121.26863098,0.130615240000225
-84.93141937,-121.34089661,0.130615240000225
-84.89324951,-121.34567261,0.130615240000225
-84.94232941,-121.25015259,0.130737310000086
-84.94519806,-121.26976776,0.130737310000086
-84.90519714,-121.33953857,0.130859380000174
-84.90589905,-121.34107208,0.130859380000174
-84.90068054,-121.34483337,0.130981450000036
-84.91204834,-121.34426117,0.131103520000124
-84.94029236,-121.34516907,0.131103520000124
-84.94535828,-121.26474762,0.131225590000213
-84.93782806,-121.34358978,0.131225590000213
-84.89716339,-121.34052277,0.131225590000213
-84.94920349,-121.26499939,0.131347660000074
-84.89691162,-121.33409882,0.131347660000074
-84.89888763,-121.34237671,0.131347660000074
-84.9208374,-121.34728241,0.131347660000074
-84.94902039,-121.25184631,0.131347660000074
-84.94448853,-121.25270081,0.131347660000074
-84.94428253,-121.25920868,0.131347660000074
-84.94376373,-121.2599411,0.131347660000074
-84.94776917,-121.26757813,0.131347660000074
-84.92790985,-121.34101105,0.131347660000074
-84.94444275,-121.29000092,0.131469730000163
-84.89083862,-121.34255981,0.131469730000163
-84.94657135,-121.2502594,0.131591800000024
-84.94445038,-121.26170349,0.131591800000024
-84.90796661,-121.33860779,0.131591800000024
-84.94309998,-121.25689697,0.131713870000112
-84.94998169,-121.27639771,0.131713870000112
-84.8975296,-121.33956909,0.131958010000062
-84.94586945,-121.26399231,0.131958010000062
-84.90805054,-121.34384918,0.131958010000062
-84.89373016,-121.34588623,0.131958010000062
-84.92276001,-121.33756256,0.132202150000012
-84.94439697,-121.26293182,0.132446290000189
-84.93287659,-121.34163666,0.132446290000189
-84.91314697,-121.34075165,0.132446290000189
-84.89620209,-121.33869934,0.132446290000189
-84.94399261,-121.25240326,0.13256836000005
-84.94716644,-121.34835052,0.13256836000005
-84.90660858,-121.3476181,0.132690430000139
-84.93161011,-121.34208679,0.132690430000139
-84.90632629,-121.34277344,0.132690430000139
-84.948349,-121.25285339,0.1328125
-84.89974213,-121.33249664,0.1328125
-84.93991089,-121.27027893,0.132934570000089
-84.94059753,-121.28005219,0.132934570000089
-84.93878937,-121.34430695,0.133056640000177
-84.92640686,-121.34816742,0.133056640000177
-84.94566345,-121.26244354,0.133178710000038
-84.94519806,-121.34726715,0.133178710000038
-84.89981842,-121.33956146,0.133300780000127
-84.9182663,-121.34722137,0.133300780000127
-84.94779205,-121.26625824,0.133300780000127
-84.91658783,-121.34667969,0.133300780000127
-84.94946289,-121.26856232,0.133422850000215
-84.94774628,-121.27526855,0.133422850000215
-84.94825745,-121.25125122,0.133544920000077
-84.94606781,-121.27295685,0.133544920000077
-84.94522858,-121.25215149,0.133544920000077
-84.93657684,-121.34272003,0.133544920000077
-84.90802765,-121.34345245,0.133789070000148
-84.94480133,-121.25788879,0.133789070000148
-84.91092682,-121.33912659,0.133911140000009
-84.94348145,-121.25208282,0.134033210000098
-84.94132233,-121.27253723,0.134033210000098
-84.90872192,-121.33779907,0.134033210000098
-84.91027069,-121.34410858,0.134033210000098
-84.94242096,-121.28775787,0.134155280000186
-84.90679932,-121.34298706,0.134155280000186
-84.94728088,-121.25045013,0.134277350000048
-84.91127777,-121.3468399,0.134521490000225
-84.94584656,-121.26390839,0.134521490000225
-84.88851166,-121.33587646,0.134521490000225
-84.94802094,-121.26647949,0.134643560000086
-84.94944763,-121.2842865,0.134643560000086
-84.94547272,-121.34597778,0.134643560000086
-84.90628052,-121.34320831,0.134643560000086
-84.90724945,-121.33673096,0.134765630000174
-84.89585114,-121.34886932,0.134765630000174
-84.9475174,-121.25845337,0.134887700000036
-84.94248962,-121.34536743,0.134887700000036
-84.93109131,-121.34976196,0.134887700000036
-84.94789886,-121.26869965,0.135009770000124
-84.93881989,-121.29997253,0.135009770000124
-84.93013763,-121.30610657,0.135009770000124
-84.94551849,-121.25061798,0.135009770000124
-84.94435883,-121.25533295,0.135253910000074
-84.94384766,-121.27133179,0.135253910000074
-84.91055298,-121.34282684,0.135253910000074
-84.90982819,-121.34481049,0.135375980000163
-84.9172821,-121.34353638,0.135375980000163
-84.92331696,-121.34462738,0.135375980000163
-84.93406677,-121.3425827,0.135498050000024
-84.92320251,-121.34597778,0.135498050000024
-84.93816376,-121.26912689,0.135620120000112
-84.93901062,-121.34423828,0.135620120000112
-84.89997864,-121.34658051,0.135742190000201
-84.93942261,-121.29061127,0.135864260000062
-84.94077301,-121.27345276,0.135986330000151
-84.94415283,-121.25379181,0.136108400000012
-84.94873047,-121.26695251,0.136108400000012
-84.94924164,-121.27472687,0.136108400000012
-84.93823242,-121.34519958,0.136108400000012
-84.92814636,-121.3396225,0.136108400000012
-84.92929077,-121.33281708,0.1362304700001
-84.92196655,-121.34516907,0.1362304700001
-84.90779877,-121.34365845,0.136352540000189
-84.92941284,-121.33940125,0.136352540000189
-84.91927338,-121.34332275,0.136352540000189
-84.93463898,-121.31432343,0.13647461000005
-84.89823914,-121.34436035,0.13647461000005
-84.91134644,-121.34081268,0.13647461000005
-84.90653229,-121.34291077,0.13647461000005
-84.94869232,-121.26017761,0.136596680000139
-84.93089294,-121.31227875,0.136840820000089
-84.94671631,-121.2513504,0.136840820000089
-84.93791199,-121.26882935,0.136840820000089
-84.93663788,-121.26953888,0.136840820000089
-84.91906738,-121.34384918,0.136962890000177
-84.89459991,-121.3480072,0.136962890000177
-84.92739868,-121.33930969,0.137084960000038
-84.93067932,-121.30387115,0.137207030000127
-84.94564819,-121.34739685,0.137207030000127
-84.93502808,-121.3430481,0.137207030000127
-84.9464798,-121.28209686,0.137329100000215
-84.93618774,-121.26776123,0.137329100000215
-84.90361023,-121.34934235,0.137451170000077
-84.94335938,-121.2547226,0.137451170000077
-84.94333649,-121.27098846,0.137451170000077
-84.9489212,-121.34674835,0.137451170000077
-84.91242981,-121.34555817,0.137573250000059
-84.90260315,-121.33161163,0.137573250000059
-84.90926361,-121.33844757,0.137695320000148
-84.90009308,-121.34597015,0.137817390000009
-84.94875336,-121.2501297,0.137817390000009
-84.94776917,-121.25736237,0.137817390000009
-84.93110657,-121.3404007,0.137817390000009
-84.92832947,-121.34105682,0.137817390000009
-84.93991089,-121.28813171,0.138061530000186
-84.92595673,-121.33650208,0.138061530000186
-84.93686676,-121.26950836,0.138061530000186
-84.91069031,-121.33747864,0.138061530000186
-84.91944885,-121.34577942,0.138061530000186
-84.90911102,-121.34638214,0.138183600000048
-84.89434814,-121.34770966,0.138183600000048
-84.90535736,-121.34307098,0.138305670000136
-84.94908905,-121.27866364,0.138305670000136
-84.88639832,-121.33818817,0.138305670000136
-84.94895172,-121.26528931,0.138427740000225
-84.94862366,-121.25411224,0.138427740000225
-84.94895935,-121.27464294,0.138427740000225
-84.91487885,-121.33911133,0.138427740000225
-84.93360138,-121.3106308,0.138549810000086
-84.94882965,-121.25536346,0.138549810000086
-84.94367218,-121.25218964,0.138549810000086
-84.94631195,-121.27349091,0.138671880000174
-84.94290161,-121.34676361,0.138671880000174
-84.94869995,-121.25134277,0.138916020000124
-84.94380188,-121.27144623,0.138916020000124
-84.89573669,-121.33735657,0.139160160000074
-84.89286804,-121.34690094,0.139160160000074
-84.89409637,-121.34741974,0.139160160000074
-84.92929077,-121.34179688,0.139404300000024
-84.92999268,-121.34356689,0.139404300000024
-84.91764832,-121.34616852,0.139404300000024
-84.93006134,-121.34105682,0.139648440000201
-84.94537354,-121.25068665,0.139648440000201
-84.9303894,-121.33856201,0.139770510000062
-84.92727661,-121.33921814,0.139892580000151
-84.89192963,-121.34118652,0.140014650000012
-84.936409,-121.26767731,0.140014650000012
-84.93773651,-121.34329987,0.140014650000012
-84.91042328,-121.3371582,0.140014650000012
-84.93328094,-121.34190369,0.1401367200001
-84.91413116,-121.33853149,0.1401367200001
-84.89372253,-121.33724976,0.1401367200001
-84.94978333,-121.26197815,0.140258790000189
-84.92429352,-121.3347168,0.140258790000189
-84.94696808,-121.25023651,0.140258790000189
-84.94902039,-121.27983856,0.140258790000189
-84.91767883,-121.34835052,0.14038086000005
-84.90145111,-121.34890747,0.14038086000005
-84.94892883,-121.25930786,0.14038086000005
-84.9499588,-121.27410889,0.14038086000005
-84.91641235,-121.34535217,0.14038086000005
-84.90859222,-121.340271,0.140502930000139
-84.93895721,-121.25022888,0.140502930000139
-84.91143036,-121.33667755,0.140502930000139
-84.90921783,-121.3457489,0.140625
-84.94831085,-121.34912872,0.140625
-84.91461182,-121.3467865,0.140625
-84.948349,-121.25377655,0.140747070000089
-84.94774628,-121.27252197,0.140747070000089
-84.93094635,-121.34430695,0.140747070000089
-84.89505768,-121.34815216,0.140747070000089
-84.94689941,-121.34168243,0.140747070000089
-84.89967346,-121.3323288,0.140869140000177
-84.91117859,-121.33920288,0.140991210000038
-84.94651031,-121.2564621,0.140991210000038
-84.94226074,-121.27986145,0.141113280000127
-84.93229675,-121.34107971,0.141113280000127
-84.92906189,-121.31835938,0.141235350000215
-84.94599152,-121.27269745,0.141235350000215
-84.93486786,-121.26834106,0.141235350000215
-84.94361115,-121.34719849,0.141235350000215
-84.92053223,-121.34145355,0.141235350000215
-84.91378784,-121.34098053,0.141235350000215
-84.9003067,-121.34004974,0.141235350000215
-84.93126678,-121.34178925,0.141357420000077
-84.91667938,-121.34432983,0.141357420000077
-84.90622711,-121.34249115,0.141479500000059
-84.9488678,-121.25276184,0.141601570000148
-84.91435242,-121.34674072,0.141601570000148
-84.91905212,-121.34393311,0.141723640000009
-84.94451141,-121.27188873,0.141723640000009
-84.89222717,-121.3345108,0.141723640000009
-84.9391098,-121.26846313,0.141845710000098
-84.91111755,-121.34587097,0.142089850000048
-84.89549255,-121.34963226,0.142089850000048
-84.93628693,-121.34117889,0.142211920000136
-84.93318176,-121.34432983,0.142211920000136
-84.90973663,-121.33431244,0.142211920000136
-84.90676117,-121.33345795,0.142333990000225
-84.90921021,-121.33503723,0.142456060000086
-84.92101288,-121.34166718,0.142578130000174
-84.91976929,-121.34913635,0.142578130000174
-84.90231323,-121.33982086,0.142578130000174
-84.89988708,-121.32945251,0.142578130000174
-84.94265747,-121.27818298,0.142822270000124
-84.89141083,-121.34246063,0.143066410000074
-84.9471817,-121.25041199,0.143066410000074
-84.90103149,-121.34026337,0.143066410000074
-84.94191742,-121.26651001,0.143066410000074
-84.93141937,-121.31012726,0.143188480000163
-84.91162109,-121.3377533,0.143188480000163
-84.94029236,-121.27020264,0.143188480000163
-84.94264984,-121.26357269,0.143188480000163
-84.90245056,-121.33786011,0.143310550000024
-84.89241791,-121.34348297,0.143310550000024
-84.90390015,-121.34013367,0.143310550000024
-84.93678284,-121.29904938,0.143432620000112
-84.92128754,-121.32039642,0.143432620000112
-84.94526672,-121.27110291,0.143432620000112
-84.91021729,-121.33454132,0.143432620000112
