"X","Y","Z"
-84.873909,-121.31285858,0.450073250000059
-84.86786652,-121.31391144,0.450073250000059
-84.8534317,-121.31970215,0.450073250000059
-84.88452148,-121.31719971,0.450317390000009
-84.86630249,-121.30944824,0.450439460000098
-84.91697693,-121.33476257,0.450439460000098
-84.89994812,-121.32769775,0.450561530000186
-84.85296631,-121.31816864,0.450561530000186
-84.8866806,-121.32000732,0.450683600000048
-84.86287689,-121.30547333,0.450683600000048
-84.9328537,-121.34677124,0.451049810000086
-84.86582947,-121.32282257,0.451049810000086
-84.85218811,-121.31887817,0.451049810000086
-84.87001801,-121.3167038,0.451171880000174
-84.91599274,-121.33419037,0.451416020000124
-84.92156219,-121.34945679,0.451538090000213
-84.93675995,-121.34937286,0.451660160000074
-84.89508057,-121.32299805,0.451660160000074
-84.85095978,-121.31806946,0.451782230000163
-84.85279083,-121.31838989,0.451782230000163
-84.86917114,-121.31964874,0.452026370000112
-84.88822174,-121.31826019,0.452148440000201
-84.88005066,-121.31548309,0.452392580000151
-84.85630035,-121.32296753,0.452392580000151
-84.90634155,-121.33033752,0.452514650000012
-84.8693924,-121.31237793,0.452514650000012
-84.86580658,-121.32276917,0.452514650000012
-84.85759735,-121.32926178,0.4526367200001
-84.86405182,-121.3229599,0.452758790000189
-84.85442352,-121.31913757,0.452758790000189
-84.8685379,-121.30783844,0.45288086000005
-84.85919189,-121.32630157,0.45288086000005
-84.86968231,-121.31111908,0.453002930000139
-84.87236786,-121.32071686,0.453002930000139
-84.87686157,-121.31334686,0.453125
-84.8733902,-121.31997681,0.453491210000038
-84.8678894,-121.32006073,0.453491210000038
-84.88713837,-121.32016754,0.453735350000215
-84.86950684,-121.32385254,0.453857420000077
-84.87293243,-121.31069946,0.453979500000059
-84.87268829,-121.31819916,0.453979500000059
-84.86662292,-121.32050323,0.453979500000059
-84.93599701,-121.34877014,0.454101570000148
-84.86493683,-121.31819153,0.454101570000148
-84.8730011,-121.31619263,0.454345710000098
-84.87259674,-121.32093048,0.454345710000098
-84.86955261,-121.32259369,0.454345710000098
-84.8901062,-121.32099152,0.454467780000186
-84.87660217,-121.31330109,0.454589850000048
-84.90753937,-121.33130646,0.454711920000136
-84.86987305,-121.32008362,0.454711920000136
-84.87280273,-121.32216644,0.455078130000174
-84.86472321,-121.32466125,0.455078130000174
-84.85508728,-121.32083893,0.455078130000174
-84.86908722,-121.32103729,0.455322270000124
-84.85871887,-121.32446289,0.455322270000124
-84.85455322,-121.32154846,0.455932620000112
-84.93476105,-121.34790802,0.456054690000201
-84.8844223,-121.31826019,0.456054690000201
-84.87233734,-121.31285858,0.456054690000201
-84.93695831,-121.34922791,0.456176760000062
-84.93234253,-121.34507751,0.456176760000062
-84.91692352,-121.33457184,0.456176760000062
-84.90850067,-121.33178711,0.456298830000151
-84.90067291,-121.32653046,0.456298830000151
-84.86519623,-121.32486725,0.456665040000189
-84.91686249,-121.33602905,0.457275390000177
-84.86048889,-121.32319641,0.457275390000177
-84.92307281,-121.33747864,0.457397460000038
-84.90016174,-121.32647705,0.457519530000127
-84.87882233,-121.32102966,0.457641600000215
-84.86065674,-121.32569885,0.457641600000215
-84.86435699,-121.33506775,0.457641600000215
-84.90921021,-121.33251953,0.457763670000077
-84.88420105,-121.31694031,0.457763670000077
-84.87558746,-121.31240845,0.457763670000077
-84.87436676,-121.32713318,0.457763670000077
-84.87358093,-121.31259155,0.458007820000148
-84.87921906,-121.32402802,0.458007820000148
-84.87333679,-121.32784271,0.458007820000148
-84.8706131,-121.32726288,0.458007820000148
-84.93795776,-121.34870148,0.458129890000009
-84.87378693,-121.31384277,0.458129890000009
-84.87220001,-121.32430267,0.458129890000009
-84.93379974,-121.34580994,0.458251960000098
-84.8567276,-121.32305145,0.458251960000098
-84.89697266,-121.32408905,0.458374030000186
-84.89447784,-121.32376099,0.458374030000186
-84.86647797,-121.33112335,0.458374030000186
-84.89394379,-121.32473755,0.458618170000136
-84.86962128,-121.32644653,0.458740240000225
-84.87911987,-121.31874084,0.459106450000036
-84.92868042,-121.3411026,0.459350590000213
-84.86810303,-121.32688141,0.459472660000074
-84.87246704,-121.32325745,0.459594730000163
-84.89029694,-121.3208313,0.459716800000024
-84.87033844,-121.33495331,0.459716800000024
-84.93309021,-121.34397888,0.459960940000201
-84.87454224,-121.3285675,0.460083010000062
-84.86792755,-121.33210754,0.460083010000062
-84.85764313,-121.32527161,0.460083010000062
-84.88078308,-121.32125854,0.460205080000151
-84.86131287,-121.32762909,0.4604492200001
-84.93698883,-121.3468399,0.460571290000189
-84.88661957,-121.31842804,0.460571290000189
-84.88136292,-121.32652283,0.460571290000189
-84.86437225,-121.32572174,0.460571290000189
-84.87812805,-121.32566071,0.460815430000139
-84.8631134,-121.3259201,0.4609375
-84.88188171,-121.32576752,0.461059570000089
-84.87641907,-121.32434082,0.461181640000177
-84.87373352,-121.32250214,0.461181640000177
-84.87801361,-121.32939911,0.461181640000177
-84.87272644,-121.33798218,0.461181640000177
-84.86546326,-121.33049011,0.461303710000038
-84.92445374,-121.33965302,0.461425780000127
-84.87745667,-121.31510162,0.461425780000127
-84.88130951,-121.31997681,0.461425780000127
-84.92342377,-121.34034729,0.461914070000148
-84.92913818,-121.34152222,0.462280280000186
-84.88141632,-121.31620026,0.462524420000136
-84.87174225,-121.32913971,0.462768560000086
-84.88630676,-121.3273468,0.462890630000174
-84.8777771,-121.32807922,0.462890630000174
-84.8763504,-121.32578278,0.463012700000036
-84.86078644,-121.32727051,0.463134770000124
-84.87798309,-121.32956696,0.463378910000074
-84.91116333,-121.33213806,0.463623050000024
-84.88976288,-121.32067871,0.463745120000112
-84.88066864,-121.33139801,0.463745120000112
-84.86392975,-121.33059692,0.463989260000062
-84.88780212,-121.3193512,0.464111330000151
-84.87789154,-121.33203888,0.464477540000189
-84.865242,-121.32862091,0.464477540000189
-84.90151215,-121.32853699,0.46459961000005
-84.88301849,-121.31993103,0.46459961000005
-84.87374878,-121.33615112,0.46459961000005
-84.87834167,-121.32553101,0.464721680000139
-84.9263382,-121.34210205,0.46484375
-84.86795807,-121.32943726,0.465087890000177
-84.91652679,-121.33576202,0.465209960000038
-84.93302155,-121.34404755,0.465454100000215
-84.92166901,-121.33917999,0.465454100000215
-84.90815735,-121.33148193,0.465576170000077
-84.89836121,-121.32489777,0.465698250000059
-84.88043976,-121.32982635,0.465698250000059
-84.87464905,-121.33113861,0.465698250000059
-84.92533875,-121.34153748,0.465820320000148
-84.8828125,-121.33415222,0.465820320000148
-84.88522339,-121.32897186,0.465942390000009
-84.90664673,-121.33165741,0.466064460000098
-84.87908936,-121.34078217,0.466064460000098
-84.88954163,-121.32685089,0.466186530000186
-84.88626862,-121.3194809,0.466430670000136
-84.90791321,-121.33119202,0.466552740000225
-84.93173981,-121.34446716,0.466674810000086
-84.89321136,-121.32144165,0.466796880000174
-84.88162231,-121.33183289,0.466796880000174
-84.89009857,-121.33233643,0.467163090000213
-84.8911972,-121.32936859,0.467285160000074
-84.8722229,-121.33625793,0.467285160000074
-84.89054871,-121.32608032,0.467651370000112
-84.89214325,-121.33113861,0.467651370000112
-84.88375854,-121.33487701,0.467651370000112
-84.89736176,-121.32428741,0.467895510000062
-84.92359924,-121.34040833,0.468017580000151
-84.88939667,-121.33054352,0.468017580000151
-84.89511108,-121.33197021,0.468139650000012
-84.93643188,-121.34606934,0.4682617200001
-84.88301849,-121.3343277,0.468383790000189
-84.89363098,-121.32315063,0.468627930000139
-84.88323212,-121.33557892,0.468627930000139
-84.88411713,-121.34686279,0.46875
-84.91648865,-121.33563995,0.468994140000177
-84.87702179,-121.33410645,0.468994140000177
-84.88910675,-121.33149719,0.469116210000038
-84.89427948,-121.33390808,0.469238280000127
-84.89312744,-121.32286072,0.469360350000215
-84.90763092,-121.33107758,0.469482420000077
-84.91992188,-121.33773041,0.469604500000059
-84.88530731,-121.33286285,0.469604500000059
-84.88538361,-121.33033752,0.470214850000048
-84.89272308,-121.32756042,0.470458990000225
-84.89536285,-121.3309021,0.470581060000086
-84.88124084,-121.34220886,0.470581060000086
-84.88732147,-121.34765625,0.470581060000086
-84.88343811,-121.34377289,0.470947270000124
-84.87496185,-121.33522797,0.471069340000213
-84.89376831,-121.33357239,0.471435550000024
-84.89079285,-121.33273315,0.471435550000024
-84.8884964,-121.33390045,0.471435550000024
-84.90686798,-121.33048248,0.471679690000201
-84.8864975,-121.33383179,0.471679690000201
-84.89372253,-121.32705688,0.471801760000062
-84.88980865,-121.33191681,0.4721679700001
-84.92948151,-121.3427124,0.47241211000005
-84.88825226,-121.33361053,0.47241211000005
-84.89919281,-121.33570862,0.472534180000139
-84.88807678,-121.33885956,0.472534180000139
-84.89627838,-121.33261108,0.47265625
-84.91641235,-121.33676147,0.472778320000089
-84.88533783,-121.33824921,0.473022460000038
-84.897789,-121.33238983,0.473144530000127
-84.8964386,-121.32759094,0.473266600000215
-84.92922211,-121.342659,0.473632820000148
-84.88117218,-121.3433609,0.473632820000148
-84.9397583,-121.34950256,0.473754890000009
-84.92751312,-121.34133911,0.473754890000009
-84.89183044,-121.33843994,0.473876960000098
-84.90068054,-121.33545685,0.474121100000048
-84.8984375,-121.32736969,0.474243170000136
-84.89472198,-121.33400726,0.474487310000086
-84.89666748,-121.33557129,0.474609380000174
-84.88581085,-121.34647369,0.474731450000036
-84.8837738,-121.33988953,0.475097660000074
-84.90634155,-121.33010101,0.475219730000163
-84.89290619,-121.3354187,0.475463870000112
-84.89299011,-121.34092712,0.475463870000112
-84.89964294,-121.33612823,0.475585940000201
-84.93826294,-121.34864044,0.475708010000062
-84.92372894,-121.34797668,0.475708010000062
-84.90232849,-121.33795929,0.475952150000012
-84.89219666,-121.3416214,0.476440430000139
-84.89286041,-121.33663177,0.4765625
-84.88844299,-121.34174347,0.476684570000089
-84.89688873,-121.33548737,0.477050780000127
-84.89710236,-121.33674622,0.477050780000127
-84.92938232,-121.34403992,0.477417000000059
-84.90110016,-121.33686829,0.477417000000059
-84.90361786,-121.33618927,0.477661140000009
-84.89492035,-121.34216309,0.478027350000048
-84.90406036,-121.33769226,0.478149420000136
-84.93778992,-121.34677887,0.478637700000036
-84.90512085,-121.33570862,0.478637700000036
-84.94048309,-121.34860229,0.478881840000213
-84.91491699,-121.33425903,0.479003910000074
-84.93431091,-121.34590149,0.479003910000074
-84.89720154,-121.34095001,0.479003910000074
-84.89813995,-121.34272766,0.479003910000074
-84.90383911,-121.33638763,0.479370120000112
-84.92250824,-121.33924866,0.479492190000201
-84.9020462,-121.33757782,0.479614260000062
-84.90428925,-121.33789825,0.479736330000151
-84.91906738,-121.33712006,0.479858400000012
-84.89482117,-121.34459686,0.479858400000012
-84.91265869,-121.33415985,0.4799804700001
-84.90637207,-121.33519745,0.480102540000189
-84.91065979,-121.33408356,0.480346680000139
-84.90023804,-121.33898926,0.48046875
-84.93923187,-121.3477478,0.480834960000038
-84.90802765,-121.33770752,0.481445320000148
-84.92469025,-121.34073639,0.481811530000186
-84.90167236,-121.34100342,0.481811530000186
-84.90202332,-121.34523773,0.482421880000174
-84.93300629,-121.34623718,0.482543950000036
-84.91127777,-121.33727264,0.482788090000213
-84.90744019,-121.33989716,0.482788090000213
-84.90094757,-121.34745026,0.482788090000213
-84.90466309,-121.34079742,0.483032230000163
-84.90617371,-121.34033966,0.483276370000112
-84.93740082,-121.3493576,0.483398440000201
-84.90258026,-121.3432312,0.483398440000201
-84.90873718,-121.33817291,0.483520510000062
-84.94037628,-121.3499527,0.483764650000012
-84.94213867,-121.34973907,0.484008790000189
-84.8991394,-121.34884644,0.484008790000189
-84.8963623,-121.34951019,0.484252930000139
-84.9344635,-121.347229,0.484375
-84.90448761,-121.34575653,0.484497070000089
-84.91065216,-121.34069824,0.484619140000177
-84.92149353,-121.34842682,0.484741210000038
-84.90917206,-121.3398819,0.485107420000077
-84.90487671,-121.34874725,0.485107420000077
-84.91570282,-121.33882904,0.485595710000098
-84.9141922,-121.33927917,0.485595710000098
-84.90683746,-121.34204102,0.485595710000098
-84.91867828,-121.33940887,0.486206060000086
-84.91561127,-121.34130096,0.486450200000036
-84.93985748,-121.34931183,0.487426760000062
-84.90918732,-121.34606171,0.487548830000151
-84.91127014,-121.3436203,0.487670900000012
-84.91738892,-121.33981323,0.487915040000189
-84.91584015,-121.34150696,0.487915040000189
-84.92555237,-121.34255219,0.488525390000177
-84.91472626,-121.3447113,0.488525390000177
-84.91227722,-121.34313202,0.488525390000177
-84.91166687,-121.34635925,0.488525390000177
-84.93959808,-121.34925842,0.488647460000038
-84.93025208,-121.3441925,0.488891600000215
-84.91725159,-121.34375,0.489501960000098
-84.91307831,-121.34706879,0.489624030000186
-84.91500092,-121.34367371,0.489990240000225
-84.91345215,-121.34512329,0.489990240000225
-84.91033936,-121.3482666,0.490112310000086
-84.91976929,-121.34281158,0.490234380000174
-84.91213989,-121.34681702,0.490356450000036
-84.91235352,-121.34806061,0.490600590000213
-84.92433929,-121.34751129,0.490966800000024
-84.93956757,-121.34916687,0.491455080000151
-84.91716766,-121.34516144,0.492309570000089
-84.93978882,-121.34938049,0.492919920000077
-84.92137146,-121.3465271,0.492919920000077
-84.9176178,-121.3466568,0.492919920000077
-84.93186188,-121.3468399,0.493774420000136
-84.92385101,-121.34683228,0.494018560000086
-84.9209137,-121.34829712,0.494995120000112
-84.93180084,-121.34828949,0.495361330000151
-84.92476654,-121.34877777,0.496337890000177
-84.92578125,-121.34990692,0.496337890000177
-84.93022919,-121.34967041,0.497680670000136
-84.9169693,-121.34973145,0.497680670000136
-84.92643738,-121.34970856,0.500122070000089
-84.91499329,-121.34726715,0.502441410000074
-84.9197464,-121.34664154,0.503173830000151
-84.91571045,-121.34773254,0.504150390000177
-84.91712189,-121.34999084,0.505249030000186
-84.91996765,-121.34487152,0.507690430000139
-84.92137146,-121.34902954,0.508300780000127
-84.92333984,-121.34394073,0.509887700000036
