"X","Y","Z"
-84.9418335,-121.38799286,0.650390630000174
-84.94210815,-121.36959076,0.650512700000036
-84.94555664,-121.36263275,0.652587890000177
-84.94835663,-121.3920517,0.652587890000177
-84.94004822,-121.3779068,0.654296880000174
-84.93778229,-121.38725281,0.655273440000201
-84.94719696,-121.36506653,0.655883790000189
-84.9454422,-121.36527252,0.655883790000189
-84.94024658,-121.37110138,0.65600586000005
-84.94625092,-121.39143372,0.65600586000005
-84.9462738,-121.39444733,0.656127930000139
-84.9420166,-121.37787628,0.656982420000077
-84.94341278,-121.38141632,0.657348640000009
-84.94464874,-121.38117218,0.658691410000074
-84.94769287,-121.39334106,0.658691410000074
-84.93811035,-121.38757324,0.658813480000163
-84.94711304,-121.36646271,0.659423830000151
-84.93994141,-121.39024353,0.6596679700001
-84.94571686,-121.39372253,0.660888670000077
-84.94107819,-121.39209747,0.660888670000077
-84.94962311,-121.38150787,0.661010750000059
-84.94206238,-121.37525177,0.661132820000148
-84.94967651,-121.39128113,0.661132820000148
-84.94400787,-121.39659882,0.661499030000186
-84.94814301,-121.38043213,0.661621100000048
-84.94181061,-121.37496185,0.662231450000036
-84.94741058,-121.37162018,0.662597660000074
-84.94606018,-121.39653015,0.662597660000074
-84.93955994,-121.393013,0.662597660000074
-84.94338226,-121.38021851,0.663330080000151
-84.94779968,-121.39066315,0.663452150000012
-84.94394684,-121.37773132,0.6635742200001
-84.94075012,-121.39138031,0.664672850000215
-84.94242859,-121.37789917,0.664794920000077
-84.939888,-121.39608002,0.664794920000077
-84.94425964,-121.3832016,0.664917000000059
-84.94496155,-121.39221954,0.665039070000148
-84.94493103,-121.36994934,0.665283210000098
-84.94143677,-121.3927002,0.665771490000225
-84.94483185,-121.3809433,0.665893560000086
-84.94940186,-121.39057922,0.666381840000213
-84.93900299,-121.39202118,0.666381840000213
-84.94786835,-121.39096069,0.666625980000163
-84.94325256,-121.38259125,0.6674804700001
-84.94087982,-121.39118958,0.668090820000089
-84.94979858,-121.36525726,0.668212890000177
-84.94509888,-121.39502716,0.668212890000177
-84.94799805,-121.39351654,0.669189460000098
-84.93930817,-121.39259338,0.669677740000225
-84.94127655,-121.37294006,0.669799810000086
-84.94023895,-121.39041138,0.669921880000174
-84.94689941,-121.36379242,0.670043950000036
-84.94555664,-121.39308929,0.670166020000124
-84.94133759,-121.37866974,0.670532230000163
-84.94825745,-121.39405823,0.670654300000024
-84.94450378,-121.39128113,0.671997070000089
-84.94896698,-121.3951416,0.672119140000177
-84.9432373,-121.38115692,0.672851570000148
-84.94521332,-121.39235687,0.673217780000186
-84.94508362,-121.36991882,0.674072270000124
-84.9421463,-121.39338684,0.674316410000074
-84.94589996,-121.39041901,0.674438480000163
-84.94480133,-121.39185333,0.675048830000151
-84.94441223,-121.39382935,0.675170900000012
-84.93792725,-121.39006042,0.6752929700001
-84.9495163,-121.3629303,0.6752929700001
-84.94470978,-121.36560822,0.675415040000189
-84.94464111,-121.38809967,0.676513670000077
-84.94049835,-121.37918854,0.676757820000148
-84.94689178,-121.39179993,0.677490240000225
-84.94313049,-121.39174652,0.677612310000086
-84.94390869,-121.36624908,0.677978520000124
-84.94429016,-121.39335632,0.678466800000024
-84.93656921,-121.37650299,0.678710940000201
-84.9393692,-121.38896942,0.678710940000201
-84.94895172,-121.39225006,0.680175780000127
-84.94454193,-121.39115906,0.680786140000009
-84.94230652,-121.37610626,0.681030280000186
-84.94722748,-121.39212799,0.681152350000048
-84.94181824,-121.36756134,0.681884770000124
-84.94667053,-121.36418152,0.682861330000151
-84.94532013,-121.36712646,0.683227540000189
-84.9475708,-121.39546204,0.684326170000077
-84.94776917,-121.39296722,0.684448250000059
-84.94235229,-121.37322998,0.684936530000186
-84.93518066,-121.37824249,0.685424810000086
-84.9368515,-121.38052368,0.686279300000024
-84.93888855,-121.37931824,0.686523440000201
-84.94851685,-121.39407349,0.687133790000189
-84.94158936,-121.36459351,0.688110350000215
-84.94223785,-121.36785889,0.688476570000148
-84.94609833,-121.3934021,0.688476570000148
-84.94438171,-121.39328003,0.689208990000225
-84.94151306,-121.39481354,0.689331060000086
-84.9496994,-121.39295959,0.690063480000163
-84.93881226,-121.37242889,0.690551760000062
-84.94065094,-121.37774658,0.690551760000062
-84.94239807,-121.37754822,0.690795900000012
-84.94333649,-121.39447021,0.691040040000189
-84.94020844,-121.39298248,0.69140625
-84.94991302,-121.38613129,0.69140625
-84.94888306,-121.39141846,0.692138670000077
-84.94493103,-121.39386749,0.692260750000059
-84.94892883,-121.39418793,0.692626960000098
-84.94029999,-121.39550781,0.692626960000098
-84.94902039,-121.39997864,0.693725590000213
-84.94898987,-121.3974762,0.694580080000151
-84.93990326,-121.3950119,0.694580080000151
-84.94120789,-121.3943634,0.6948242200001
-84.94288635,-121.36814117,0.695678710000038
-84.94393921,-121.3950882,0.695800780000127
-84.9477005,-121.395401,0.696411140000009
-84.94149017,-121.39466095,0.696533210000098
-84.94618988,-121.36646271,0.696655280000186
-84.94686127,-121.39659119,0.696655280000186
-84.93621063,-121.39199829,0.697509770000124
-84.94197845,-121.39546967,0.697998050000024
-84.93971252,-121.37296295,0.698364260000062
-84.94319153,-121.39710999,0.700683600000048
-84.9485321,-121.39653778,0.701538090000213
-84.94979858,-121.38687134,0.702148440000201
-84.94943237,-121.39486694,0.702270510000062
-84.94638824,-121.39891052,0.703369140000177
-84.94522095,-121.36295319,0.703857420000077
-84.94468689,-121.36392975,0.703857420000077
-84.9471283,-121.3657608,0.703979500000059
-84.94412231,-121.36589813,0.704223640000009
-84.93795776,-121.37846375,0.704467780000186
-84.94290161,-121.38036346,0.704589850000048
-84.94821167,-121.3985672,0.704589850000048
-84.94882965,-121.39710999,0.704833990000225
-84.94419861,-121.39224243,0.704833990000225
-84.94999695,-121.39546967,0.705810550000024
-84.9482193,-121.39608765,0.7065429700001
-84.94670105,-121.39621735,0.706665040000189
-84.93782043,-121.3975296,0.706665040000189
-84.94100952,-121.36820984,0.707275390000177
-84.93604279,-121.3825531,0.707641600000215
-84.93766022,-121.39704132,0.708374030000186
-84.94233704,-121.39842224,0.708984380000174
-84.94171906,-121.36865997,0.709228520000124
-84.94963074,-121.39198303,0.709350590000213
-84.93344879,-121.39346313,0.709350590000213
-84.94255829,-121.39594269,0.709716800000024
-84.9434433,-121.36168671,0.709838870000112
-84.93704987,-121.39901733,0.709838870000112
-84.93348694,-121.396492,0.710083010000062
-84.94889832,-121.36284637,0.710327150000012
-84.94700623,-121.36257172,0.710571290000189
-84.94432831,-121.36469269,0.7109375
-84.94416046,-121.39833832,0.7109375
-84.9364624,-121.38394165,0.711425780000127
-84.94815826,-121.39240265,0.711669920000077
-84.94036865,-121.36328125,0.711792000000059
-84.94722748,-121.38831329,0.711792000000059
-84.94815826,-121.3956604,0.711914070000148
-84.94288635,-121.3990097,0.711914070000148
-84.93649292,-121.37464905,0.712402350000048
-84.93575287,-121.38237762,0.712402350000048
-84.94960785,-121.36329651,0.712646490000225
-84.93604279,-121.38088226,0.712646490000225
-84.94989777,-121.3897934,0.712646490000225
-84.94597626,-121.39499664,0.712646490000225
-84.94374847,-121.39782715,0.712646490000225
-84.9380722,-121.37993622,0.712890630000174
-84.9489212,-121.36470032,0.712890630000174
-84.93942261,-121.38472748,0.713012700000036
-84.94024658,-121.39781189,0.713012700000036
-84.93618774,-121.38387299,0.713134770000124
-84.94863892,-121.39321136,0.713134770000124
-84.9467392,-121.36254883,0.713378910000074
-84.94294739,-121.36781311,0.713500980000163
-84.94426727,-121.39813995,0.713989260000062
-84.94537354,-121.39396667,0.714477540000189
-84.94915771,-121.39378357,0.71484375
-84.94171906,-121.37420654,0.715698250000059
-84.9491272,-121.36180115,0.715820320000148
-84.94304657,-121.36398315,0.716064460000098
-84.93836975,-121.37709045,0.716186530000186
-84.93409729,-121.39437103,0.716308600000048
-84.94766235,-121.3946991,0.717407230000163
-84.94132233,-121.36261749,0.717773440000201
-84.94109344,-121.37761688,0.718017580000151
-84.9434967,-121.39363098,0.718017580000151
-84.94399261,-121.37268829,0.718627930000139
-84.94821167,-121.39202881,0.720458990000225
-84.9418335,-121.37680054,0.720825200000036
-84.94516754,-121.36638641,0.720947270000124
-84.94911194,-121.39060974,0.721435550000024
-84.94338226,-121.39341736,0.721801760000062
-84.94611359,-121.3753891,0.722290040000189
