"X","Y","Z"
-84.95556641,-121.24964905,0.150512700000036
-84.96292114,-121.24842072,0.150634770000124
-84.95796204,-121.24887848,0.151000980000163
-84.95168304,-121.24778748,0.151000980000163
-84.96076965,-121.24648285,0.151611330000151
-84.95535278,-121.24989319,0.152221680000139
-84.96640778,-121.24797058,0.152465820000089
-84.96420288,-121.24662781,0.152832030000127
-84.9524765,-121.24549866,0.152954100000215
-84.96195221,-121.24234772,0.153076170000077
-84.96759033,-121.24999237,0.153076170000077
-84.95667267,-121.24523163,0.153320320000148
-84.96350098,-121.24485016,0.153320320000148
-84.96766663,-121.2474823,0.153442390000009
-84.96611786,-121.24893188,0.153442390000009
-84.96453094,-121.24253845,0.154052740000225
-84.95348358,-121.24497986,0.154663090000213
-84.950737,-121.24463654,0.154663090000213
-84.96537781,-121.24667358,0.155029300000024
-84.96842957,-121.24669647,0.155151370000112
-84.96592712,-121.24636078,0.155395510000062
-84.96736908,-121.24839783,0.155517580000151
-84.95910645,-121.24836731,0.155883790000189
-84.95783234,-121.24845886,0.15600586000005
-84.96968842,-121.24594879,0.156127930000139
-84.96698761,-121.24436951,0.156127930000139
-84.95301056,-121.2434082,0.156127930000139
-84.96118164,-121.24494171,0.156372070000089
-84.95391846,-121.24565887,0.156738280000127
-84.95542145,-121.24919128,0.156738280000127
-84.96526337,-121.24329376,0.156738280000127
-84.95815277,-121.24655151,0.157104500000059
-84.95639038,-121.24674225,0.157348640000009
-84.96775818,-121.24333954,0.157592780000186
-84.96154022,-121.2430191,0.157836920000136
-84.95213318,-121.23906708,0.157958990000225
-84.95516205,-121.24591827,0.157958990000225
-84.95793915,-121.24784088,0.158203130000174
-84.96961975,-121.24739075,0.158203130000174
-84.96549225,-121.24349976,0.158325200000036
-84.96086884,-121.2470932,0.158569340000213
-84.95480347,-121.24259186,0.158691410000074
-84.95596313,-121.24694824,0.158813480000163
-84.95800781,-121.24247742,0.158935550000024
-84.95645142,-121.24417114,0.159179690000201
-84.96115112,-121.24581909,0.159301760000062
-84.95436096,-121.2390976,0.159301760000062
-84.96382904,-121.24427032,0.159423830000151
-84.9526825,-121.24224091,0.159423830000151
-84.95863342,-121.24508667,0.159545900000012
-84.9715271,-121.24964142,0.160034180000139
-84.96040344,-121.24552917,0.160034180000139
-84.95983887,-121.24751282,0.16015625
-84.95098877,-121.24887848,0.16015625
-84.96510315,-121.23937988,0.160278320000089
-84.95974731,-121.24249268,0.160400390000177
-84.95413971,-121.2378006,0.160522460000038
-84.97212982,-121.24613953,0.160644530000127
-84.96231842,-121.24781799,0.160644530000127
-84.95274353,-121.24903107,0.160644530000127
-84.96125031,-121.24423981,0.160888670000077
-84.9552002,-121.2408905,0.160888670000077
-84.9585495,-121.24043274,0.161132820000148
-84.95770264,-121.24365234,0.161254890000009
-84.96295929,-121.24330902,0.161499030000186
-84.96843719,-121.24398041,0.161621100000048
-84.97277832,-121.24912262,0.161743170000136
-84.96681213,-121.24017334,0.161743170000136
-84.95036316,-121.24784851,0.161743170000136
-84.95278168,-121.24160767,0.161865240000225
-84.95982361,-121.23969269,0.161865240000225
-84.95728302,-121.24085999,0.161865240000225
-84.95870972,-121.24291229,0.161987310000086
-84.95879364,-121.24469757,0.162109380000174
-84.97232819,-121.24733734,0.162231450000036
-84.95735931,-121.23834991,0.162231450000036
-84.95726013,-121.24965668,0.162231450000036
-84.96688843,-121.24069977,0.162597660000074
-84.95171356,-121.24697113,0.162719730000163
-84.96492004,-121.23982239,0.162963870000112
-84.95578766,-121.23889923,0.163085940000201
-84.96116638,-121.24391174,0.163085940000201
-84.97411346,-121.2458725,0.163208010000062
-84.96351624,-121.24076843,0.163208010000062
-84.96576691,-121.24859619,0.163208010000062
-84.97006226,-121.2474823,0.163452150000012
-84.96401215,-121.24878693,0.163452150000012
-84.95085144,-121.24867249,0.163452150000012
-84.97051239,-121.24899292,0.1635742200001
-84.97489166,-121.24488068,0.163696290000189
-84.97827911,-121.24848175,0.16381836000005
-84.97701263,-121.24893951,0.16381836000005
-84.9673996,-121.24437714,0.16381836000005
-84.95832062,-121.23883057,0.16381836000005
-84.97033691,-121.24622345,0.163940430000139
-84.9622879,-121.23995972,0.163940430000139
-84.95284271,-121.24907684,0.163940430000139
-84.96089935,-121.24416351,0.1640625
-84.96069336,-121.24289703,0.164184570000089
-84.95841217,-121.2485199,0.164184570000089
-84.96772003,-121.24211884,0.164306640000177
-84.96723175,-121.23874664,0.165039070000148
-84.95529175,-121.24720001,0.165039070000148
-84.98075867,-121.2485199,0.165161140000009
-84.95623016,-121.24897766,0.165161140000009
-84.96366119,-121.24344635,0.165527350000048
-84.95046234,-121.24165344,0.165527350000048
-84.96424866,-121.24163818,0.165771490000225
-84.97711182,-121.24513245,0.165771490000225
-84.97437286,-121.24478149,0.166137700000036
-84.95780945,-121.24014282,0.166381840000213
-84.95052338,-121.24932098,0.166381840000213
-84.9662323,-121.24099731,0.166503910000074
-84.96762848,-121.23706818,0.166748050000024
-84.967453,-121.24954224,0.166748050000024
-84.95095062,-121.24246216,0.166992190000201
-84.97136688,-121.24414825,0.167114260000062
-84.96691132,-121.24275208,0.167236330000151
-84.95362854,-121.24356842,0.1674804700001
-84.95317078,-121.24204254,0.167602540000189
-84.95184326,-121.24465179,0.16772461000005
-84.95585632,-121.24085236,0.16772461000005
-84.96630096,-121.24620819,0.167846680000139
-84.97557831,-121.24526215,0.16796875
-84.96743774,-121.24173737,0.16796875
-84.96591949,-121.2421875,0.16796875
-84.9643631,-121.2410202,0.168090820000089
-84.95230103,-121.24157715,0.168090820000089
-84.95388031,-121.23729706,0.168212890000177
-84.9804306,-121.24990845,0.168212890000177
-84.95902252,-121.24671173,0.168334960000038
-84.95413208,-121.24723816,0.168334960000038
-84.95684814,-121.23438263,0.168457030000127
-84.95410919,-121.2412262,0.168701170000077
-84.95960236,-121.24886322,0.168945320000148
-84.96832275,-121.24497986,0.169311530000186
-84.96949768,-121.24701691,0.169433600000048
-84.95523834,-121.24635315,0.169555670000136
-84.98368835,-121.2492218,0.169677740000225
-84.95855713,-121.23651886,0.170043950000036
-84.95697021,-121.23377991,0.170166020000124
-84.95379639,-121.23699188,0.170288090000213
-84.95372009,-121.23195648,0.170288090000213
-84.95258331,-121.23886871,0.170288090000213
-84.96063232,-121.2452774,0.170410160000074
-84.96196747,-121.24748993,0.170410160000074
-84.95539093,-121.24201965,0.170410160000074
-84.96302032,-121.24577332,0.171142580000151
-84.97406769,-121.24434662,0.171142580000151
-84.96102905,-121.24542999,0.171264650000012
-84.95330048,-121.24295807,0.171264650000012
-84.9715271,-121.24550629,0.17163086000005
-84.96154785,-121.23665619,0.171997070000089
-84.95349121,-121.23065186,0.171997070000089
-84.95353699,-121.24022675,0.171997070000089
-84.98288727,-121.24986267,0.172241210000038
-84.95823669,-121.24436188,0.172241210000038
-84.97994995,-121.24800873,0.172363280000127
-84.96942902,-121.24040985,0.172485350000215
-84.95726013,-121.23285675,0.172607420000077
-84.9553299,-121.24639893,0.172607420000077
-84.96183014,-121.23564911,0.172729500000059
-84.95223236,-121.23858643,0.172729500000059
-84.97335052,-121.24276733,0.172851570000148
-84.95948029,-121.24107361,0.172973640000009
-84.95960999,-121.23432159,0.172973640000009
-84.96620178,-121.2395401,0.172973640000009
-84.96472931,-121.24649048,0.173095710000098
-84.96468353,-121.2399826,0.173217780000186
-84.95491028,-121.24236298,0.173217780000186
-84.97644806,-121.24736786,0.173339850000048
-84.96198273,-121.23838806,0.173339850000048
-84.96202087,-121.24490356,0.173339850000048
-84.97698975,-121.24611664,0.173461920000136
-84.95887756,-121.241539,0.173461920000136
-84.95461273,-121.23361969,0.173583990000225
-84.95941162,-121.23278809,0.173583990000225
-84.96312714,-121.24514008,0.173706060000086
-84.98487854,-121.24963379,0.173706060000086
-84.95957184,-121.2355423,0.173706060000086
-84.97232056,-121.24320221,0.174072270000124
-84.95791626,-121.23197174,0.174316410000074
-84.96066284,-121.24433899,0.174560550000024
-84.97161865,-121.24166107,0.174560550000024
-84.96221161,-121.23860168,0.174560550000024
-84.96363831,-121.24064636,0.174682620000112
-84.95561981,-121.24343872,0.174682620000112
-84.95497131,-121.24539185,0.174682620000112
-84.97820282,-121.24685669,0.175048830000151
-84.97595215,-121.24678802,0.175048830000151
-84.96806335,-121.2432785,0.175048830000151
-84.96867371,-121.24755096,0.175170900000012
-84.95896149,-121.24237061,0.1752929700001
-84.95683289,-121.23335266,0.175415040000189
-84.96354675,-121.24337006,0.17553711000005
-84.98338318,-121.24900818,0.175659180000139
-84.97135925,-121.24160767,0.17578125
-84.95916748,-121.23146057,0.17578125
-84.97998047,-121.24564362,0.176025390000177
-84.97409058,-121.24194336,0.176025390000177
-84.97319794,-121.24642181,0.176025390000177
-84.98108673,-121.24992371,0.176147460000038
-84.96228027,-121.24356079,0.176269530000127
-84.97045898,-121.24607086,0.176391600000215
-84.95435333,-121.24436951,0.176391600000215
-84.96125031,-121.24234009,0.176757820000148
-84.9699173,-121.2392807,0.176757820000148
-84.95301056,-121.23925018,0.176757820000148
-84.96108246,-121.23399353,0.177001960000098
-84.96753693,-121.24294281,0.177246100000048
-84.97457123,-121.24217224,0.177368170000136
-84.97239685,-121.23959351,0.177490240000225
-84.96027374,-121.24344635,0.177490240000225
-84.95294189,-121.23796082,0.177490240000225
-84.95713806,-121.2324295,0.177612310000086
-84.97559357,-121.24143982,0.177612310000086
-84.9624176,-121.23822021,0.177978520000124
-84.96707916,-121.24140167,0.177978520000124
-84.9668808,-121.23989868,0.177978520000124
-84.95171356,-121.2371521,0.177978520000124
-84.98033142,-121.24958038,0.178100590000213
-84.9641037,-121.23303986,0.178222660000074
-84.97142029,-121.24653625,0.178222660000074
-84.96005249,-121.24217224,0.178222660000074
-84.958992,-121.22862244,0.178222660000074
-84.96240997,-121.23097992,0.178344730000163
-84.96247864,-121.24713135,0.178466800000024
-84.97142029,-121.23877716,0.178466800000024
-84.96896362,-121.23744202,0.178588870000112
-84.95684814,-121.24215698,0.178710940000201
-84.98442078,-121.24668884,0.178833010000062
-84.98387909,-121.24791718,0.178833010000062
-84.95777893,-121.24968719,0.178955080000151
-84.96340942,-121.23439789,0.179077150000012
-84.98195648,-121.24510193,0.179077150000012
-84.960289,-121.24240112,0.1791992200001
-84.95113373,-121.24536896,0.179321290000189
-84.96530914,-121.23378754,0.17944336000005
-84.96838379,-121.23940277,0.17944336000005
-84.95333099,-121.23631287,0.179809570000089
-84.95874786,-121.24273682,0.180053710000038
-84.97486877,-121.23959351,0.180053710000038
-84.95050049,-121.23503876,0.180175780000127
-84.96465302,-121.23074341,0.180419920000077
-84.9677124,-121.2365799,0.180542000000059
-84.97338867,-121.23876953,0.180786140000009
-84.9523468,-121.24147797,0.180908210000098
-84.95955658,-121.24079895,0.181396490000225
-84.95224762,-121.23480988,0.181396490000225
-84.96356201,-121.23400879,0.181518560000086
-84.96585083,-121.23146057,0.182373050000024
-84.96846771,-121.2358017,0.182373050000024
-84.95140839,-121.23700714,0.182495120000112
-84.95301819,-121.23378754,0.182617190000201
-84.96629333,-121.23322296,0.182739260000062
-84.9746933,-121.24449921,0.182739260000062
-84.95749664,-121.23931122,0.182861330000151
-84.95240784,-121.24062347,0.182861330000151
-84.95642853,-121.23416138,0.182983400000012
-84.95542145,-121.23053741,0.1831054700001
-84.95288086,-121.23182678,0.1831054700001
-84.97393799,-121.2364502,0.1831054700001
-84.98587036,-121.24633026,0.18359375
-84.97756958,-121.24781799,0.18359375
-84.95072174,-121.22147369,0.18359375
-84.96395874,-121.23230743,0.183715820000089
-84.97377014,-121.24944305,0.183837890000177
-84.96910095,-121.246521,0.184204100000215
-84.9803009,-121.2403717,0.184326170000077
-84.97592926,-121.23622131,0.184692390000009
-84.96616364,-121.23310089,0.184814460000098
-84.9537735,-121.23298645,0.184814460000098
-84.95224762,-121.23343658,0.184814460000098
-84.95747375,-121.23924255,0.184936530000186
-84.97374725,-121.24939728,0.185058600000048
-84.98123169,-121.24237823,0.185180670000136
-84.97650146,-121.24172211,0.185302740000225
-84.95204926,-121.23191833,0.185302740000225
-84.95562744,-121.23652649,0.185546880000174
-84.95012665,-121.23709869,0.185668950000036
-84.95001221,-121.23282623,0.185791020000124
-84.96705627,-121.23747253,0.185791020000124
-84.98490906,-121.24447632,0.185791020000124
-84.96544647,-121.24285126,0.185791020000124
-84.95162964,-121.22913361,0.185913090000213
-84.9801178,-121.23755646,0.186035160000074
-84.97664642,-121.23668671,0.186157230000163
-84.95542908,-121.24301147,0.186157230000163
-84.96012878,-121.23690033,0.186279300000024
-84.97370148,-121.23484039,0.186401370000112
-84.98110199,-121.24607849,0.186523440000201
-84.95178223,-121.23187256,0.186523440000201
-84.9538269,-121.2279129,0.186645510000062
-84.99028778,-121.24787903,0.186645510000062
-84.97267914,-121.23554993,0.186645510000062
-84.97035217,-121.24572754,0.186645510000062
-84.95636749,-121.23401642,0.186889650000012
-84.955513,-121.22985077,0.1870117200001
-84.95941162,-121.24002838,0.1870117200001
-84.98326874,-121.2483902,0.187133790000189
-84.95162201,-121.22908783,0.187133790000189
-84.9503479,-121.23731232,0.187133790000189
-84.95612335,-121.24449921,0.18725586000005
-84.95648193,-121.23325348,0.187377930000139
-84.98644257,-121.24269867,0.187988280000127
-84.95263672,-121.2438736,0.187988280000127
-84.96865082,-121.24362946,0.188110350000215
-84.96640015,-121.23930359,0.188232420000077
-84.9564209,-121.24289703,0.188232420000077
-84.96137238,-121.23636627,0.188476570000148
-84.95420837,-121.22563171,0.188598640000009
-84.95630646,-121.24622345,0.188598640000009
-84.95847321,-121.23555756,0.188720710000098
-84.98423004,-121.24912262,0.188720710000098
-84.95980835,-121.23834229,0.188842780000186
-84.95681763,-121.23256683,0.188842780000186
-84.97403717,-121.2467804,0.188964850000048
-84.95838165,-121.24375916,0.189208990000225
-84.96608734,-121.23294067,0.189331060000086
-84.95278168,-121.23882294,0.189331060000086
-84.96994781,-121.24162292,0.189575200000036
-84.95066071,-121.24250031,0.189575200000036
-84.96685028,-121.23786926,0.189697270000124
-84.95503235,-121.23137665,0.189819340000213
-84.95452881,-121.23085022,0.189819340000213
-84.9540863,-121.2370224,0.189819340000213
-84.95606995,-121.2469635,0.189819340000213
-84.95585632,-121.24970245,0.189819340000213
-84.95333862,-121.22905731,0.189941410000074
-84.95702362,-121.23117065,0.190063480000163
-84.98045349,-121.24169159,0.190185550000024
-84.98432922,-121.24530792,0.190307620000112
-84.95529938,-121.24562836,0.190307620000112
-84.95535278,-121.22859955,0.190429690000201
-84.98233032,-121.24523926,0.190551760000062
-84.96224976,-121.24733734,0.190673830000151
-84.95378876,-121.2303009,0.190795900000012
-84.95127869,-121.23670959,0.1909179700001
-84.95142365,-121.2363205,0.1909179700001
-84.9595108,-121.23121643,0.191040040000189
-84.98248291,-121.24021912,0.19116211000005
-84.97454834,-121.24571991,0.19116211000005
-84.96318817,-121.24886322,0.19116211000005
-84.95054626,-121.22968292,0.19116211000005
-84.95934296,-121.23986816,0.19140625
-84.97303009,-121.23065186,0.19140625
-84.95523834,-121.2454071,0.19140625
-84.96051788,-121.23074341,0.191650390000177
-84.96631622,-121.23693085,0.191650390000177
-84.9552002,-121.22480774,0.191650390000177
-84.9643631,-121.23561096,0.191772460000038
-84.95810699,-121.24342346,0.191772460000038
-84.99723053,-121.24793243,0.192016600000215
-84.95189667,-121.23061371,0.192016600000215
-84.99183655,-121.24449921,0.192138670000077
-84.97335815,-121.24365234,0.192138670000077
-84.95693207,-121.24111176,0.192138670000077
-84.95883179,-121.22840881,0.192260750000059
-84.95523834,-121.23905182,0.192260750000059
-84.95397949,-121.23925781,0.192260750000059
-84.97147369,-121.24006653,0.192504890000009
-84.95950317,-121.24668884,0.192626960000098
-84.95147705,-121.23635864,0.192871100000048
-84.96729279,-121.24378967,0.192993170000136
-84.95989227,-121.23764801,0.193115240000225
-84.9642334,-121.24707031,0.193115240000225
-84.95722961,-121.23133087,0.193115240000225
-84.95571899,-121.23153687,0.193115240000225
-84.95140076,-121.24165344,0.193115240000225
-84.95596313,-121.24649048,0.193115240000225
-84.95635986,-121.2256012,0.193359380000174
-84.97685242,-121.23545074,0.193603520000124
-84.97141266,-121.24128723,0.193603520000124
-84.99256134,-121.24495697,0.193847660000074
-84.96394348,-121.24803925,0.193969730000163
-84.96143341,-121.23243713,0.194091800000024
-84.95329285,-121.2392807,0.194091800000024
-84.97853088,-121.24549866,0.194213870000112
-84.96961212,-121.2349472,0.194335940000201
-84.95928192,-121.24511719,0.194335940000201
-84.95308685,-121.22956085,0.194458010000062
-84.9707489,-121.23822784,0.194458010000062
-84.96053314,-121.23464966,0.194580080000151
-84.97753906,-121.24494934,0.194702150000012
-84.96465302,-121.23326874,0.194702150000012
-84.95178223,-121.23686218,0.194702150000012
-84.95365906,-121.24066925,0.1948242200001
-84.97982788,-121.23576355,0.194946290000189
-84.95715332,-121.22332001,0.19506836000005
-84.95201111,-121.22438812,0.19506836000005
-84.97962189,-121.23448944,0.195190430000139
-84.98326111,-121.23786163,0.1953125
-84.9693985,-121.2334137,0.1953125
-84.96130371,-121.22839355,0.1953125
-84.96694183,-121.23181915,0.195434570000089
-84.96370697,-121.23121643,0.195434570000089
-84.97225952,-121.23774719,0.195434570000089
-84.95723724,-121.22992706,0.195556640000177
-84.97859192,-121.23519135,0.195678710000038
-84.9593811,-121.23356628,0.195678710000038
-84.95153046,-121.23657227,0.195678710000038
-84.97406006,-121.23603821,0.195922850000215
-84.95934296,-121.24256897,0.195922850000215
-84.95892334,-121.22454071,0.195922850000215
-84.96411896,-121.2494812,0.196044920000077
-84.95828247,-121.24453735,0.196044920000077
-84.95311737,-121.23903656,0.196044920000077
-84.97859192,-121.24292755,0.196167000000059
-84.9797287,-121.23845673,0.196289070000148
-84.95783234,-121.24643707,0.196533210000098
-84.96369934,-121.24668884,0.196655280000186
-84.96195221,-121.24688721,0.196655280000186
-84.96011353,-121.22902679,0.196777350000048
-84.98467255,-121.24810791,0.196899420000136
-84.96353149,-121.22840118,0.197021490000225
-84.9907608,-121.24504852,0.197143560000086
-84.96565247,-121.23246765,0.197143560000086
-84.9520874,-121.23345947,0.197143560000086
-84.98858643,-121.24246979,0.197265630000174
-84.96479034,-121.22794342,0.197265630000174
-84.98319244,-121.23928833,0.197387700000036
-84.97984314,-121.24243164,0.197387700000036
-84.95236206,-121.22370911,0.197509770000124
-84.95368195,-121.23132324,0.197509770000124
-84.98252869,-121.23625183,0.197753910000074
-84.95681763,-121.22431183,0.197875980000163
-84.96929169,-121.23581696,0.197875980000163
-84.99668121,-121.24745941,0.197998050000024
-84.96842194,-121.23153687,0.197998050000024
-84.96302032,-121.22836304,0.197998050000024
-84.96079254,-121.24355316,0.197998050000024
-84.97577667,-121.23602295,0.198120120000112
-84.95539093,-121.24011993,0.198120120000112
-84.95542908,-121.23886108,0.198242190000201
-84.99713135,-121.24897003,0.198364260000062
-84.99353027,-121.24410248,0.198364260000062
-84.96723938,-121.23724365,0.198364260000062
-84.95233154,-121.24201202,0.198364260000062
-84.95587158,-121.24330902,0.198364260000062
-84.96433258,-121.22637939,0.198486330000151
-84.98294067,-121.23899078,0.198608400000012
-84.9609375,-121.24629211,0.198608400000012
-84.95954895,-121.24273682,0.1987304700001
-84.96116638,-121.22325897,0.198852540000189
-84.95729828,-121.24266052,0.19897461000005
-84.95272827,-121.23046875,0.19921875
-84.95742035,-121.22234344,0.199340820000089
-84.95614624,-121.2315979,0.199340820000089
-84.95857239,-121.22541809,0.199462890000177
-84.9699707,-121.2375412,0.199462890000177
-84.9678421,-121.24922943,0.199462890000177
-84.96504974,-121.22686005,0.199707030000127
-84.95497131,-121.22283173,0.199829100000215
-84.96244049,-121.24604797,0.199829100000215
-84.98532867,-121.24178314,0.199951170000077
-84.98696899,-121.24533081,0.200073250000059
-84.96350098,-121.2360611,0.200073250000059
-84.97747803,-121.23700714,0.200195320000148
-84.95527649,-121.24279785,0.200195320000148
-84.95025635,-121.23562622,0.200195320000148
-84.9662323,-121.22888184,0.200317390000009
-84.959198,-121.24517059,0.200561530000186
-84.95393372,-121.24017334,0.200561530000186
-84.96717072,-121.23841095,0.200683600000048
-84.96215057,-121.24700928,0.200683600000048
-84.99562836,-121.24809265,0.200805670000136
-84.97077179,-121.23551941,0.200805670000136
-84.95105743,-121.22743225,0.200927740000225
-84.96311951,-121.22425842,0.200927740000225
-84.99211121,-121.24846649,0.201049810000086
-84.9936676,-121.24675751,0.201171880000174
-84.99015045,-121.23938751,0.201171880000174
-84.95400238,-121.22770691,0.201171880000174
-84.95641327,-121.23053741,0.201293950000036
-84.95980835,-121.24165344,0.201416020000124
-84.97537994,-121.23964691,0.201538090000213
-84.95230103,-121.22355652,0.201782230000163
-84.95449829,-121.22437286,0.202026370000112
-84.9615097,-121.22367859,0.202148440000201
-84.95043182,-121.22135925,0.202148440000201
-84.95133972,-121.23222351,0.202270510000062
-84.97447205,-121.23634338,0.202392580000151
-84.95903778,-121.22289276,0.20288086000005
-84.96363831,-121.24649048,0.20288086000005
-84.95545197,-121.22772217,0.203002930000139
-84.95439911,-121.23816681,0.203002930000139
-84.95214844,-121.23809814,0.203002930000139
-84.95023346,-121.23390198,0.203002930000139
-84.95509338,-121.23995209,0.203125
-84.9917984,-121.24188232,0.203247070000089
-84.95475769,-121.24217987,0.203369140000177
-84.97657776,-121.24037933,0.203613280000127
-84.969841,-121.23989868,0.203735350000215
-84.95394135,-121.2443924,0.203735350000215
-84.99507141,-121.24897766,0.203857420000077
-84.95172119,-121.2197876,0.203857420000077
-84.95272827,-121.23435974,0.203857420000077
-84.96096802,-121.24360657,0.203979500000059
-84.95165253,-121.2378006,0.203979500000059
-84.96643829,-121.23652649,0.204101570000148
-84.97527313,-121.2420578,0.204345710000098
-84.96440125,-121.24571228,0.204345710000098
-84.95362091,-121.23919678,0.204345710000098
-84.97392273,-121.22949982,0.204467780000186
-84.9703598,-121.23914337,0.204467780000186
-84.95646667,-121.22412109,0.204589850000048
-84.95765686,-121.24523926,0.204589850000048
-84.95030212,-121.22104645,0.204589850000048
-84.99713898,-121.2462616,0.204711920000136
-84.99362946,-121.2466507,0.204711920000136
-84.96109009,-121.2473526,0.204711920000136
-84.95246124,-121.24330902,0.204711920000136
-84.95114136,-121.23751068,0.204956060000086
-84.98925018,-121.24273682,0.205078130000174
-84.96118164,-121.22464752,0.205200200000036
-84.97293091,-121.22894287,0.205200200000036
-84.95070648,-121.22544098,0.205322270000124
-84.95587158,-121.24291229,0.205444340000213
-84.99635315,-121.24720764,0.205566410000074
-84.96160889,-121.23042297,0.205688480000163
-84.96678925,-121.24849701,0.205688480000163
-84.97052002,-121.24936676,0.205810550000024
-84.95535278,-121.22122955,0.205932620000112
-84.95012665,-121.23049164,0.205932620000112
-84.97672272,-121.24305725,0.205932620000112
-84.97627258,-121.23352814,0.206054690000201
-84.96576691,-121.2489624,0.206054690000201
-84.95330048,-121.24004364,0.206054690000201
-84.97818756,-121.23607635,0.206420900000012
-84.95142365,-121.24397278,0.206420900000012
-84.98165894,-121.24469757,0.2065429700001
-84.96219635,-121.22754669,0.2065429700001
-84.95841217,-121.24445343,0.2065429700001
-84.95436096,-121.24581909,0.2065429700001
-84.96186829,-121.22190094,0.206665040000189
-84.962883,-121.22551727,0.20678711000005
-84.9826889,-121.23596954,0.20678711000005
-84.96502686,-121.24865723,0.20678711000005
-84.98358154,-121.24725342,0.206909180000139
-84.98174286,-121.24217987,0.206909180000139
-84.96433258,-121.23136139,0.206909180000139
-84.97038269,-121.23755646,0.206909180000139
-84.99069214,-121.24372101,0.20703125
-84.9750824,-121.23145294,0.207275390000177
-84.97099304,-121.22631073,0.207275390000177
-84.95883942,-121.22290802,0.207275390000177
-84.95281219,-121.23467255,0.207397460000038
-84.95941162,-121.24394989,0.207519530000127
-84.95614624,-121.24433899,0.207519530000127
-84.95171356,-121.22956848,0.207519530000127
-84.99878693,-121.24845886,0.207763670000077
-84.96272278,-121.22653198,0.207763670000077
-84.95249939,-121.21768951,0.207885750000059
-84.95243835,-121.22200775,0.208007820000148
-84.96676636,-121.24842072,0.208007820000148
-84.990242,-121.24192047,0.208251960000098
-84.95937347,-121.24517059,0.208251960000098
-84.95559692,-121.22006226,0.208496100000048
-84.95552826,-121.23890686,0.208496100000048
-84.95662689,-121.24456787,0.208740240000225
-84.9780426,-121.231987,0.208862310000086
-84.95568085,-121.24278259,0.208984380000174
-84.95375061,-121.23300934,0.209106450000036
-84.98042297,-121.23580933,0.209228520000124
-84.96675873,-121.24838257,0.209228520000124
-84.95854187,-121.24710846,0.209350590000213
-84.95173645,-121.21710205,0.209594730000163
-84.9562912,-121.24703217,0.209594730000163
-84.98719025,-121.24276733,0.209716800000024
-84.95915222,-121.24360657,0.209716800000024
-84.95040131,-121.24333954,0.209716800000024
-84.95336914,-121.2191925,0.209838870000112
-84.98078156,-121.23204041,0.210083010000062
-84.9502182,-121.21753693,0.210083010000062
-84.97480011,-121.2390976,0.210327150000012
-84.96910858,-121.22914886,0.210327150000012
-84.95570374,-121.21820831,0.210327150000012
-84.95780182,-121.24655914,0.210327150000012
-84.99008942,-121.24584961,0.2104492200001
-84.96179962,-121.24642944,0.210571290000189
-84.96546936,-121.22551727,0.21069336000005
-84.95223236,-121.23065948,0.21069336000005
-84.98574829,-121.24043274,0.2109375
-84.95680237,-121.22226715,0.211059570000089
-84.98136902,-121.23652649,0.211059570000089
-84.97348022,-121.23301697,0.211059570000089
-84.95632172,-121.24572754,0.211059570000089
-84.95155334,-121.22660065,0.211059570000089
-84.96035004,-121.22107697,0.211303710000038
-84.95478821,-121.22241211,0.211547850000215
-84.978508,-121.2399292,0.211547850000215
-84.99033356,-121.24581146,0.211669920000077
-84.97518921,-121.2263031,0.211792000000059
-84.99759674,-121.24504089,0.211914070000148
-84.95556641,-121.24517822,0.212036140000009
-84.9901123,-121.24453735,0.212158210000098
-84.95050049,-121.22126007,0.212158210000098
-84.98552704,-121.24687958,0.212402350000048
-84.95065308,-121.21897888,0.212402350000048
-84.95336914,-121.21999359,0.212402350000048
-84.95326996,-121.21884918,0.212646490000225
-84.97563171,-121.22779083,0.212646490000225
-84.95436859,-121.219841,0.212646490000225
-84.95140839,-121.22911835,0.212768560000086
-84.95581818,-121.21881866,0.212890630000174
-84.98168182,-121.23423004,0.212890630000174
-84.95165253,-121.23565674,0.212890630000174
-84.98462677,-121.23581696,0.213012700000036
-84.98213196,-121.23574066,0.213012700000036
-84.96765137,-121.22701263,0.213012700000036
-84.95144653,-121.23188019,0.213012700000036
-84.95851135,-121.22438812,0.213134770000124
-84.98175812,-121.2314682,0.213134770000124
-84.95191193,-121.21849823,0.213134770000124
-84.95690918,-121.22164917,0.213256840000213
-84.99056244,-121.23800659,0.213378910000074
-84.96006012,-121.2452774,0.213378910000074
-84.95829773,-121.24546814,0.213500980000163
-84.96161652,-121.22219086,0.213623050000024
-84.99398804,-121.2401123,0.213745120000112
-84.97548676,-121.22399139,0.213745120000112
-84.9693985,-121.22654724,0.213745120000112
-84.9575882,-121.22065735,0.213745120000112
-84.99181366,-121.2455368,0.213867190000201
-84.98097992,-121.2399292,0.213867190000201
-84.96347809,-121.24761963,0.213989260000062
-84.96549988,-121.22366333,0.214233400000012
-84.98787689,-121.23538971,0.214233400000012
-84.96320343,-121.24835968,0.214233400000012
-84.9516983,-121.23242188,0.214233400000012
-84.9536972,-121.24211121,0.214233400000012
-84.95211029,-121.22718811,0.2143554700001
-84.98464966,-121.23452759,0.214477540000189
-84.97966003,-121.22634888,0.21459961000005
-84.96253204,-121.22229004,0.21459961000005
-84.95063019,-121.21891022,0.21459961000005
-84.95066833,-121.23316956,0.21459961000005
-84.95169067,-121.23593903,0.214721680000139
-84.99160004,-121.2440033,0.21484375
-84.95298767,-121.22250366,0.21484375
-84.98922729,-121.23990631,0.214965820000089
-84.9628067,-121.22103119,0.215332030000127
-84.95572662,-121.2184906,0.215454100000215
-84.95288849,-121.21958923,0.215454100000215
-84.99159241,-121.23621368,0.215576170000077
-84.9888916,-121.23462677,0.215576170000077
-84.95879364,-121.22138977,0.215576170000077
-84.98693085,-121.24107361,0.215698250000059
-84.96279144,-121.22544098,0.215820320000148
-84.98213196,-121.22663879,0.215942390000009
-84.98722076,-121.23982239,0.215942390000009
-84.98615265,-121.23401642,0.215942390000009
-84.98014069,-121.23432922,0.215942390000009
-84.95128632,-121.23191833,0.215942390000009
-84.95629883,-121.22370911,0.216064460000098
-84.95150757,-121.22917175,0.216064460000098
-84.98523712,-121.23097992,0.216308600000048
-84.9894104,-121.23361206,0.216430670000136
-84.96396637,-121.22328186,0.216674810000086
-84.95613861,-121.21681976,0.216796880000174
-84.99742889,-121.24086761,0.216796880000174
-84.99304199,-121.24497986,0.216918950000036
-84.96453857,-121.21914673,0.217041020000124
-84.96965027,-121.22544861,0.217041020000124
-84.96383667,-121.23793793,0.217163090000213
-84.98493958,-121.23220062,0.217163090000213
-84.98980713,-121.24411011,0.217285160000074
-84.98674774,-121.23825073,0.217407230000163
-84.97383118,-121.22782135,0.217407230000163
-84.96482086,-121.22545624,0.217529300000024
-84.9905777,-121.23561859,0.217529300000024
-84.95558167,-121.21170807,0.217651370000112
-84.95510101,-121.23446655,0.217651370000112
-84.95110321,-121.22866821,0.217773440000201
-84.95471954,-121.22267914,0.218017580000151
-84.96634674,-121.22052002,0.218139650000012
-84.98976135,-121.23757935,0.218139650000012
-84.95674133,-121.21485138,0.2182617200001
-84.95905304,-121.2125473,0.2182617200001
-84.96244049,-121.21591187,0.218383790000189
-84.95687103,-121.2099762,0.218383790000189
-84.95435333,-121.21865082,0.218383790000189
-84.9833374,-121.23484802,0.21850586000005
-84.95159149,-121.22270203,0.218627930000139
-84.99626923,-121.24526978,0.21875
-84.9570694,-121.21147156,0.218872070000089
-84.96190643,-121.22438812,0.218872070000089
-84.99539948,-121.24874115,0.218994140000177
-84.96103668,-121.21234131,0.218994140000177
-84.95622253,-121.23796082,0.218994140000177
-84.95355988,-121.21935272,0.219116210000038
-84.98615265,-121.23291016,0.219482420000077
-84.95240784,-121.20854187,0.219482420000077
-84.95523834,-121.22164917,0.219482420000077
-84.99305725,-121.24339294,0.219604500000059
-84.98880768,-121.23574829,0.219604500000059
-84.95207977,-121.21853638,0.219604500000059
-84.99506378,-121.23568726,0.219848640000009
-84.974823,-121.22727203,0.219848640000009
-84.99265289,-121.24060822,0.219970710000098
-84.96179962,-121.21183014,0.219970710000098
-84.95069885,-121.23049164,0.219970710000098
-84.96909332,-121.22633362,0.220092780000186
-84.95713806,-121.22055817,0.220214850000048
-84.9587326,-121.21372986,0.220214850000048
-84.95436859,-121.23284912,0.220336920000136
-84.95717621,-121.21338654,0.220458990000225
-84.96008301,-121.21076202,0.220458990000225
-84.95755005,-121.21167755,0.220458990000225
-84.95398712,-121.22107697,0.220458990000225
-84.99207306,-121.23506927,0.220581060000086
-84.95239258,-121.20851135,0.220581060000086
-84.95906067,-121.21121979,0.220703130000174
-84.96891785,-121.22354889,0.220703130000174
-84.96286774,-121.21734619,0.220703130000174
-84.96217346,-121.22332764,0.220825200000036
-84.96090698,-121.22379303,0.220825200000036
-84.96000671,-121.21840668,0.220947270000124
-84.9575119,-121.22042084,0.220947270000124
-84.95123291,-121.23148346,0.221069340000213
-84.98555756,-121.23483276,0.221191410000074
-84.95327759,-121.21800232,0.221313480000163
-84.95513153,-121.20881653,0.221313480000163
-84.95781708,-121.21066284,0.221435550000024
-84.99107361,-121.23449707,0.221557620000112
-84.9673233,-121.22647858,0.221557620000112
-84.96707153,-121.21871185,0.221557620000112
-84.95217133,-121.21386719,0.221679690000201
-84.99925232,-121.24476624,0.221679690000201
-84.97096252,-121.22209167,0.221679690000201
-84.95903778,-121.24741364,0.221801760000062
-84.97525024,-121.22872162,0.221923830000151
-84.96489716,-121.22363281,0.221923830000151
-84.95455933,-121.21309662,0.2221679700001
-84.95381927,-121.21826172,0.2221679700001
-84.97052765,-121.21955109,0.222290040000189
-84.9699173,-121.22303009,0.22241211000005
-84.96401978,-121.21182251,0.222534180000139
-84.96652985,-121.24294281,0.222534180000139
-84.96063995,-121.23924255,0.22265625
-84.97821808,-121.22928619,0.222778320000089
-84.96750641,-121.22769165,0.222778320000089
-84.99629974,-121.24263763,0.222900390000177
-84.9747467,-121.2281723,0.222900390000177
-84.9523468,-121.22106171,0.222900390000177
-84.95796967,-121.21311188,0.223022460000038
-84.95995331,-121.23744965,0.223022460000038
-84.96382904,-121.24108124,0.223022460000038
-84.99681854,-121.23413849,0.223144530000127
-84.95809174,-121.20935822,0.223144530000127
-84.95307159,-121.2177124,0.223144530000127
-84.95906067,-121.21392059,0.223266600000215
-84.97344208,-121.2301178,0.223266600000215
-84.95700073,-121.23560333,0.223266600000215
-84.99604797,-121.23484802,0.223388670000077
-84.95580292,-121.21053314,0.223388670000077
-84.96421814,-121.21305084,0.223510750000059
-84.96127319,-121.21144867,0.223510750000059
-84.97264862,-121.22332764,0.223510750000059
-84.95262146,-121.21243286,0.223632820000148
-84.96311951,-121.21626282,0.223632820000148
-84.95852661,-121.21085358,0.223876960000098
-84.96317291,-121.22251129,0.223876960000098
-84.96087646,-121.23921204,0.223876960000098
-84.97975922,-121.22754669,0.223999030000186
-84.95568848,-121.21739197,0.224121100000048
-84.9872818,-121.23478699,0.224243170000136
-84.95452118,-121.2130127,0.224731450000036
-84.97824097,-121.22798157,0.224731450000036
-84.9595108,-121.21247864,0.224975590000213
-84.99819946,-121.23737335,0.224975590000213
-84.97644806,-121.22915649,0.224975590000213
-84.95088959,-121.23059082,0.224975590000213
-84.9588623,-121.23934937,0.225097660000074
-84.96521759,-121.21251678,0.225341800000024
-84.95581818,-121.20921326,0.225341800000024
-84.96044922,-121.2208786,0.225341800000024
-84.97884369,-121.23222351,0.225585940000201
-84.95504761,-121.23320007,0.225830080000151
-84.96047211,-121.21209717,0.225952150000012
-84.95921326,-121.21256256,0.225952150000012
-84.97209167,-121.22422791,0.225952150000012
-84.9693985,-121.24591827,0.225952150000012
-84.96076965,-121.24188995,0.225952150000012
-84.95404816,-121.24230957,0.225952150000012
-84.96424103,-121.21172333,0.2260742200001
-84.95787048,-121.23879242,0.2260742200001
-84.97061157,-121.2156601,0.226440430000139
-84.97335815,-121.22351074,0.226440430000139
-84.98455811,-121.23287201,0.226684570000089
-84.96967316,-121.21362305,0.226684570000089
-84.9679184,-121.24485016,0.226684570000089
-84.95822906,-121.21951294,0.226684570000089
-84.98876953,-121.23426056,0.226806640000177
-84.95239258,-121.23783875,0.226806640000177
-84.95845795,-121.21224976,0.226928710000038
-84.97319031,-121.22873688,0.226928710000038
-84.96369171,-121.21292114,0.227050780000127
-84.96623993,-121.21926117,0.227050780000127
-84.96578217,-121.21772766,0.227172850000215
-84.96987152,-121.22286224,0.227417000000059
-84.96353912,-121.24066925,0.227661140000009
-84.98568726,-121.22862244,0.227783210000098
-84.95535278,-121.21511841,0.227783210000098
-84.96450806,-121.2181778,0.227783210000098
-84.98737335,-121.23091888,0.227905280000186
-84.98127747,-121.23348236,0.227905280000186
-84.9540863,-121.23108673,0.228027350000048
-84.96296692,-121.21572876,0.228149420000136
-84.97518921,-121.22827148,0.228149420000136
-84.97325897,-121.22621155,0.228149420000136
-84.95076752,-121.23706818,0.228149420000136
-84.9702301,-121.22685242,0.228271490000225
-84.95835876,-121.21565247,0.228393560000086
-84.96531677,-121.22393799,0.228393560000086
-84.95625305,-121.23365021,0.228393560000086
-84.97283936,-121.22342682,0.228515630000174
-84.9958725,-121.23842621,0.228759770000124
-84.96961975,-121.24584198,0.228759770000124
-84.96601868,-121.2409668,0.228759770000124
-84.95948029,-121.21872711,0.228759770000124
-84.95303345,-121.21826935,0.228881840000213
-84.96891785,-121.2440567,0.228881840000213
-84.95404053,-121.24006653,0.228881840000213
-84.96279144,-121.24034882,0.229003910000074
-84.9553833,-121.21853638,0.229125980000163
-84.95877838,-121.24047089,0.229125980000163
-84.95185852,-121.21389771,0.229248050000024
-84.96698761,-121.21846008,0.229248050000024
-84.9642868,-121.21687317,0.229248050000024
-84.96453857,-121.24015045,0.229248050000024
-84.95480347,-121.2436676,0.229248050000024
-84.99241638,-121.23654175,0.229370120000112
-84.966362,-121.21443176,0.229370120000112
-84.96514893,-121.24442291,0.229370120000112
-84.95153046,-121.22445679,0.229370120000112
-84.98551178,-121.23355865,0.229492190000201
-84.96341705,-121.21257782,0.229492190000201
-84.97824097,-121.22631836,0.229614260000062
-84.96730804,-121.22370911,0.229736330000151
-84.96273804,-121.24157715,0.229736330000151
-84.9833374,-121.23097992,0.229858400000012
-84.95304871,-121.23175049,0.229858400000012
-84.99638367,-121.23764801,0.2299804700001
-84.98795319,-121.22737122,0.2299804700001
-84.97007751,-121.21527863,0.2299804700001
-84.95030212,-121.22364807,0.2299804700001
-84.95717621,-121.21250153,0.23022461000005
-84.95433807,-121.21360016,0.23022461000005
-84.95111847,-121.21366119,0.23022461000005
-84.95214081,-121.22870636,0.23022461000005
-84.96333313,-121.21504974,0.230346680000139
-84.99134827,-121.23046112,0.230712890000177
-84.97499084,-121.22566986,0.230834960000038
-84.95757294,-121.21510315,0.230834960000038
-84.96595001,-121.21911621,0.230834960000038
-84.96253204,-121.24002838,0.230957030000127
-84.95274353,-121.21083832,0.231079100000215
-84.95278168,-121.23169708,0.231079100000215
-84.95062256,-121.21336365,0.231201170000077
-84.95258331,-121.23018646,0.231201170000077
-84.95584106,-121.21427917,0.231323250000059
-84.96443176,-121.21930695,0.231323250000059
-84.95979309,-121.21038055,0.231445320000148
-84.98594666,-121.23475647,0.231445320000148
-84.95543671,-121.23452759,0.231445320000148
-84.9548111,-121.21498871,0.231567390000009
-84.96720886,-121.21839142,0.231567390000009
-84.95014191,-121.21186066,0.231811530000186
-84.98847198,-121.22633362,0.231811530000186
-84.97370911,-121.22634888,0.231811530000186
-84.97464752,-121.22812653,0.231933600000048
-84.95130157,-121.23490906,0.231933600000048
-84.98103333,-121.23182678,0.232055670000136
-84.97255707,-121.22303772,0.232177740000225
-84.96875,-121.21691132,0.232543950000036
-84.98670197,-121.23425293,0.232788090000213
-84.97170258,-121.22624969,0.232788090000213
-84.98130798,-121.23081207,0.233032230000163
-84.96769714,-121.24188232,0.233032230000163
-84.9622879,-121.23870087,0.233154300000024
-84.96793365,-121.21885681,0.233276370000112
-84.96598053,-121.24082184,0.233276370000112
-84.95256042,-121.21130371,0.233398440000201
-84.95088196,-121.20934296,0.233520510000062
-84.98236084,-121.22132111,0.233520510000062
-84.96975708,-121.21616364,0.233520510000062
-84.95091248,-121.23415375,0.233520510000062
-84.981987,-121.2325592,0.233642580000151
-84.96661377,-121.22080231,0.2338867200001
-84.95761871,-121.24471283,0.2338867200001
-84.99450684,-121.23995972,0.234008790000189
-84.98673248,-121.23296356,0.234008790000189
-84.95485687,-121.21130371,0.23413086000005
-84.99282074,-121.23789978,0.23413086000005
-84.9761734,-121.21884155,0.23413086000005
-84.98130035,-121.2307663,0.23413086000005
-84.97081757,-121.2219162,0.23413086000005
-84.95871735,-121.21703339,0.23413086000005
-84.97303772,-121.246521,0.234252930000139
-84.95271301,-121.21733093,0.234375
-84.95741272,-121.23448944,0.234497070000089
-84.95388031,-121.20662689,0.234741210000038
-84.96983337,-121.22136688,0.234863280000127
-84.95877838,-121.24958801,0.234985350000215
-84.97543335,-121.22605133,0.235107420000077
-84.95467377,-121.23387909,0.235107420000077
-84.98181152,-121.23000336,0.235351570000148
-84.95574188,-121.20825195,0.235595710000098
-84.95908356,-121.23677063,0.235595710000098
-84.95118713,-121.21749115,0.235595710000098
-84.97235107,-121.22042084,0.235839850000048
-84.95269012,-121.22503662,0.235839850000048
-84.98052979,-121.2304306,0.236328130000174
-84.96009064,-121.22051239,0.236328130000174
-84.97483826,-121.22046661,0.236694340000213
-84.97202301,-121.22261047,0.237182620000112
-84.97350311,-121.24668884,0.237304690000201
-84.95015717,-121.23890686,0.237426760000062
-84.95311737,-121.20922852,0.237548830000151
-84.99241638,-121.22602081,0.237548830000151
-84.96568298,-121.24066925,0.237548830000151
-84.9560318,-121.22959137,0.237548830000151
-84.98893738,-121.22515106,0.237670900000012
-84.97560883,-121.2197113,0.237670900000012
-84.96730042,-121.22119904,0.237670900000012
-84.96882629,-121.24376678,0.237670900000012
-84.95459747,-121.22728729,0.237670900000012
-84.95567322,-121.21661377,0.2377929700001
-84.95655823,-121.22859955,0.2377929700001
-84.95120239,-121.22416687,0.2377929700001
-84.98448181,-121.23149872,0.237915040000189
-84.98251343,-121.22267914,0.23803711000005
-84.96456909,-121.22058868,0.23803711000005
-84.95439911,-121.20433807,0.238159180000139
-84.97956848,-121.22081757,0.23828125
-84.95700073,-121.2381134,0.23828125
-84.95465088,-121.21169281,0.238403320000089
-84.99215698,-121.22598267,0.238525390000177
-84.95118713,-121.21639252,0.238525390000177
-84.95265961,-121.24263763,0.238525390000177
-84.9832077,-121.23194122,0.238647460000038
-84.98867798,-121.22511292,0.238769530000127
-84.95794678,-121.23961639,0.238891600000215
-84.96341705,-121.24054718,0.239013670000077
-84.95741272,-121.24059296,0.239379890000009
-84.9575882,-121.21131134,0.239501960000098
-84.95488739,-121.2097168,0.239624030000186
-84.9690094,-121.22193146,0.239868170000136
-84.96295166,-121.22348022,0.239868170000136
-84.95310211,-121.22641754,0.239868170000136
-84.96794128,-121.22389221,0.239990240000225
-84.95500183,-121.20976257,0.240112310000086
-84.95509338,-121.21095276,0.240356450000036
-84.96321869,-121.21470642,0.240600590000213
-84.95487976,-121.20968628,0.240600590000213
-84.96221161,-121.22293854,0.240600590000213
-84.95884705,-121.2108078,0.240722660000074
-84.95500946,-121.22895813,0.240722660000074
-84.96562958,-121.2175293,0.240966800000024
-84.97637939,-121.21762085,0.241088870000112
-84.95868683,-121.23132324,0.241088870000112
-84.95626831,-121.21295929,0.241455080000151
-84.96942902,-121.22364044,0.241455080000151
-84.97589874,-121.22485352,0.241577150000012
-84.96703339,-121.24407959,0.241577150000012
-84.95681,-121.21238708,0.2416992200001
-84.95406342,-121.21163177,0.2416992200001
-84.97148132,-121.24546814,0.2416992200001
-84.96264648,-121.21665192,0.24194336000005
-84.95736694,-121.21748352,0.24194336000005
-84.96170044,-121.21485901,0.242065430000139
-84.9853363,-121.22663879,0.2421875
-84.96192169,-121.23164368,0.2421875
-84.95831299,-121.21925354,0.2421875
-84.95800018,-121.21569824,0.242309570000089
-84.97614288,-121.24835968,0.242309570000089
-84.95816803,-121.20797729,0.242309570000089
-84.95152283,-121.21251678,0.242431640000177
-84.97084808,-121.22564697,0.242797850000215
-84.95452118,-121.20388031,0.242919920000077
-84.95668793,-121.20690918,0.243042000000059
-84.97290039,-121.24772644,0.243042000000059
-84.98696136,-121.23040771,0.243164070000148
-84.96257782,-121.21060181,0.243164070000148
-84.95054626,-121.20346069,0.243164070000148
-84.95796967,-121.2294693,0.243286140000009
-84.95456696,-121.2115097,0.243408210000098
-84.95935822,-121.21724701,0.243408210000098
-84.95716095,-121.21045685,0.243652350000048
-84.95252228,-121.21201324,0.243652350000048
-84.9548111,-121.21083069,0.243896490000225
-84.95864105,-121.21269226,0.244018560000086
-84.97955322,-121.22689056,0.244140630000174
-84.96531677,-121.21840668,0.244262700000036
-84.96005249,-121.21900177,0.244262700000036
-84.95124054,-121.2049408,0.244384770000124
-84.9730072,-121.2281723,0.244384770000124
-84.9566803,-121.2146225,0.244506840000213
-84.96755981,-121.22624207,0.244506840000213
-84.96118164,-121.21476746,0.244628910000074
-84.97049713,-121.22032166,0.244628910000074
-84.95630646,-121.21034241,0.244873050000024
-84.95050812,-121.20922852,0.244995120000112
-84.96768188,-121.21470642,0.245117190000201
-84.97132111,-121.21807861,0.245117190000201
-84.95088196,-121.22367096,0.245239260000062
-84.95458221,-121.20301056,0.245361330000151
-84.97859192,-121.22531128,0.245361330000151
-84.95761108,-121.20900726,0.2456054700001
-84.98841095,-121.22337341,0.2456054700001
-84.96141815,-121.21473694,0.2456054700001
-84.98812866,-121.2321167,0.245727540000189
-84.96256256,-121.21803284,0.245727540000189
-84.97756958,-121.22576141,0.24584961000005
-84.99445343,-121.22981262,0.245971680000139
-84.96228027,-121.2190094,0.245971680000139
-84.95793915,-121.21385956,0.24609375
-84.99694824,-121.22988129,0.246215820000089
-84.95207214,-121.20451355,0.246337890000177
-84.97936249,-121.22431183,0.246337890000177
-84.9798584,-121.23233032,0.246337890000177
-84.97585297,-121.2246933,0.246337890000177
-84.96112823,-121.2157135,0.246337890000177
-84.95491028,-121.21450806,0.246337890000177
-84.99073029,-121.22866821,0.246582030000127
-84.95613861,-121.20568848,0.246704100000215
-84.95731354,-121.20982361,0.246704100000215
-84.9581604,-121.20658875,0.246826170000077
-84.96797943,-121.21238708,0.247314460000098
-84.95004272,-121.22583008,0.247314460000098
-84.97501373,-121.21938324,0.247436530000186
-84.95947266,-121.21234894,0.247802740000225
-84.95761871,-121.20916748,0.247924810000086
-84.95292664,-121.21338654,0.247924810000086
-84.99684906,-121.23232269,0.248046880000174
-84.9905777,-121.22486877,0.248046880000174
-84.97917938,-121.22174072,0.248046880000174
-84.95839691,-121.2065506,0.248046880000174
-84.95362091,-121.2059021,0.248168950000036
-84.99394226,-121.2294693,0.248168950000036
-84.96163177,-121.21492004,0.248168950000036
-84.95982361,-121.20884705,0.248168950000036
-84.98477936,-121.22615814,0.248413090000213
-84.99810791,-121.23184967,0.248535160000074
-84.96723175,-121.21183014,0.248535160000074
-84.99160004,-121.22412109,0.248779300000024
-84.9516983,-121.22808075,0.248901370000112
-84.98706818,-121.23271942,0.249267580000151
-84.97737885,-121.23065186,0.249267580000151
-84.95134735,-121.20606995,0.249389650000012
-84.97715759,-121.22939301,0.2495117200001
-84.99089813,-121.23007965,0.249633790000189
-84.9605484,-121.2090683,0.249633790000189
-84.99645996,-121.23600006,0.249877930000139
-84.98606873,-121.23216248,0.249877930000139
-84.96746063,-121.21204376,0.249877930000139
-84.95761108,-121.21498108,0.249877930000139
-84.95928192,-121.21727753,0.249877930000139
