"X","Y","Z"
-84.9731369,-121.42417908,0.178710940000201
-84.98570251,-121.37362671,0.178833010000062
-84.95855713,-121.35729218,0.178833010000062
-84.96478271,-121.35241699,0.178833010000062
-84.95343018,-121.43041992,0.178833010000062
-84.98088074,-121.36644745,0.178955080000151
-84.9814682,-121.37297058,0.178955080000151
-84.971138,-121.36872864,0.178955080000151
-84.95514679,-121.36054993,0.178955080000151
-84.98075104,-121.4468689,0.178955080000151
-84.97212219,-121.35739899,0.179077150000012
-84.97605896,-121.42961121,0.179077150000012
-84.96630859,-121.40058899,0.1791992200001
-84.95567322,-121.44111633,0.1791992200001
-84.99835205,-121.44560242,0.179321290000189
-84.969841,-121.40036774,0.179321290000189
-84.96365356,-121.37078094,0.17944336000005
-84.97412109,-121.37136841,0.17944336000005
-84.97891998,-121.43520355,0.17944336000005
-84.96173859,-121.43985748,0.17944336000005
-84.99466705,-121.35484314,0.17944336000005
-84.96412659,-121.43598938,0.17944336000005
-84.96594238,-121.38378143,0.179565430000139
-84.9824295,-121.37760162,0.1796875
-84.9888382,-121.39492035,0.1796875
-84.98287201,-121.44241333,0.1796875
-84.98123932,-121.3734436,0.1796875
-84.97389984,-121.36628723,0.1796875
-84.95980835,-121.44288635,0.179809570000089
-84.97393799,-121.44877625,0.179931640000177
-84.96096039,-121.4165802,0.179931640000177
-84.95578766,-121.3575592,0.180053710000038
-84.9782486,-121.42787933,0.180053710000038
-84.97445679,-121.44803619,0.180175780000127
-84.96401978,-121.42266846,0.180175780000127
-84.98056793,-121.44637299,0.180175780000127
-84.96555328,-121.44593811,0.180175780000127
-84.97746277,-121.37390137,0.180297850000215
-84.96180725,-121.4210968,0.180419920000077
-84.96816254,-121.40953827,0.180419920000077
-84.97647858,-121.42825317,0.180419920000077
-84.972229,-121.37277985,0.180542000000059
-84.990448,-121.44080353,0.180542000000059
-84.97428894,-121.42974854,0.180542000000059
-84.96840668,-121.42581177,0.180542000000059
-84.96063232,-121.41880035,0.180542000000059
-84.9716568,-121.44168091,0.180664070000148
-84.97080994,-121.40146637,0.180786140000009
-84.97106934,-121.42862701,0.180908210000098
-84.9599762,-121.3914566,0.180908210000098
-84.97634125,-121.44158936,0.180908210000098
-84.98555756,-121.37306213,0.181030280000186
-84.98645782,-121.39459229,0.181152350000048
-84.97328186,-121.43325043,0.181152350000048
-84.98148346,-121.37097168,0.181274420000136
-84.95298767,-121.39630127,0.181274420000136
-84.97398376,-121.36650848,0.181396490000225
-84.95832062,-121.35749817,0.181396490000225
-84.97682953,-121.35797882,0.181396490000225
-84.9686203,-121.4270401,0.181396490000225
-84.96553802,-121.36646271,0.181518560000086
-84.96647644,-121.38008118,0.181518560000086
-84.96700287,-121.39266205,0.181518560000086
-84.98058319,-121.37612152,0.181640630000174
-84.97506714,-121.35791016,0.181640630000174
-84.95800781,-121.41442871,0.181640630000174
-84.97567749,-121.35443115,0.181762700000036
-84.97133636,-121.4143219,0.181762700000036
-84.97698212,-121.43206787,0.181762700000036
-84.96717072,-121.448349,0.181884770000124
-84.98580933,-121.41359711,0.182006840000213
-84.99604797,-121.44570923,0.182006840000213
-84.96295929,-121.38356781,0.182006840000213
-84.96308136,-121.39811707,0.182006840000213
-84.97583771,-121.42420959,0.182006840000213
-84.96154785,-121.37059784,0.182128910000074
-84.97286224,-121.35658264,0.182128910000074
-84.96433258,-121.42012024,0.182128910000074
-84.97506714,-121.36997986,0.182128910000074
-84.95321655,-121.35877228,0.182373050000024
-84.95150757,-121.42756653,0.182373050000024
-84.9887085,-121.37107849,0.182495120000112
-84.9818573,-121.37863159,0.182495120000112
-84.96569824,-121.3968277,0.182495120000112
-84.96891022,-121.40711975,0.182495120000112
-84.97519684,-121.42617035,0.182495120000112
-84.99028015,-121.44867706,0.182617190000201
-84.97872162,-121.37339783,0.182739260000062
-84.96488953,-121.36579132,0.182739260000062
-84.95514679,-121.44113159,0.182739260000062
-84.9766922,-121.35392761,0.182861330000151
-84.95574188,-121.40161133,0.182861330000151
-84.95893097,-121.41641235,0.182983400000012
-84.97976685,-121.37110901,0.182983400000012
-84.96772766,-121.3967514,0.182983400000012
-84.97293854,-121.41671753,0.182983400000012
-84.97059631,-121.38844299,0.182983400000012
-84.9641037,-121.39320374,0.182983400000012
-84.96443939,-121.42669678,0.182983400000012
-84.97228241,-121.36450195,0.1831054700001
-84.99301147,-121.44706726,0.1831054700001
-84.96469879,-121.36490631,0.1831054700001
-84.96350861,-121.39617157,0.1831054700001
-84.97561646,-121.44972992,0.183227540000189
-84.95720673,-121.41533661,0.18334961000005
-84.98018646,-121.36588287,0.18334961000005
-84.97000122,-121.36784363,0.18334961000005
-84.96600342,-121.36450958,0.18334961000005
-84.96592712,-121.39109039,0.18334961000005
-84.96955872,-121.43601227,0.183471680000139
-84.97998047,-121.44561768,0.183471680000139
-84.96589661,-121.44602203,0.183471680000139
-84.98719788,-121.40072632,0.18359375
-84.95619202,-121.41578674,0.183837890000177
-84.97886658,-121.44077301,0.183837890000177
-84.97550201,-121.43247986,0.183837890000177
-84.96044922,-121.36538696,0.183959960000038
-84.97962952,-121.44419098,0.183959960000038
-84.974823,-121.42842102,0.183959960000038
-84.97701263,-121.44113922,0.183959960000038
-84.97116852,-121.44004822,0.184082030000127
-84.96578979,-121.39962006,0.184204100000215
-84.97000122,-121.3646698,0.184326170000077
-84.95520782,-121.41500092,0.184326170000077
-84.96076202,-121.37088776,0.184326170000077
-84.967453,-121.42340088,0.184448250000059
-84.98178864,-121.44853973,0.184448250000059
-84.97299957,-121.41976166,0.184448250000059
-84.99082184,-121.44644928,0.184570320000148
-84.96099091,-121.35135651,0.184570320000148
-84.98069763,-121.36945343,0.184570320000148
-84.97310638,-121.3638382,0.184570320000148
-84.96761322,-121.4052887,0.184570320000148
-84.96814728,-121.44972229,0.184570320000148
-84.96499634,-121.36518097,0.184692390000009
-84.95227051,-121.41288757,0.184692390000009
-84.97090912,-121.36316681,0.184692390000009
-84.9878006,-121.44727325,0.184692390000009
-84.98448944,-121.36924744,0.184936530000186
-84.97428894,-121.37145996,0.184936530000186
-84.95584869,-121.43395996,0.184936530000186
-84.99511719,-121.3574295,0.184936530000186
-84.97979736,-121.44212341,0.185058600000048
-84.96215057,-121.37602997,0.185180670000136
-84.96941376,-121.41146088,0.185180670000136
-84.95761871,-121.38289642,0.185180670000136
-84.96578979,-121.39362335,0.185302740000225
-84.97013092,-121.41828918,0.185302740000225
-84.99500275,-121.44937897,0.185424810000086
-84.97358704,-121.44983673,0.185424810000086
-84.96260834,-121.38308716,0.185546880000174
-84.96215057,-121.4434967,0.185546880000174
-84.95793152,-121.36559296,0.185668950000036
-84.97606659,-121.37136078,0.185668950000036
-84.96988678,-121.40875244,0.185668950000036
-84.95465851,-121.38063812,0.185668950000036
-84.97434235,-121.36473083,0.185791020000124
-84.98712158,-121.40041351,0.185791020000124
-84.9817276,-121.44573212,0.185791020000124
-84.9894104,-121.443367,0.185913090000213
-84.97399139,-121.43013763,0.185913090000213
-84.96116638,-121.43663788,0.185913090000213
-84.98342896,-121.37280273,0.186035160000074
-84.99130249,-121.37628174,0.186035160000074
-84.98699951,-121.44284058,0.186035160000074
-84.96285248,-121.39335632,0.186035160000074
-84.96909332,-121.42614746,0.186157230000163
-84.96035767,-121.37037659,0.186157230000163
-84.97368622,-121.41808319,0.186157230000163
-84.95039368,-121.40302277,0.186157230000163
-84.97273254,-121.44528198,0.186279300000024
-84.96881866,-121.41944885,0.186279300000024
-84.97058868,-121.3626709,0.186523440000201
-84.98378754,-121.42125702,0.186523440000201
-84.96463013,-121.37374115,0.186645510000062
-84.95043182,-121.43631744,0.186645510000062
-84.96161652,-121.36988831,0.186889650000012
-84.97136688,-121.42494965,0.186889650000012
-84.97158813,-121.44171906,0.186889650000012
-84.96266174,-121.38285828,0.186889650000012
-84.96951294,-121.41400146,0.186889650000012
-84.97174835,-121.44953918,0.186889650000012
-84.96472931,-121.36641693,0.1870117200001
-84.95223999,-121.41306305,0.1870117200001
-84.96604919,-121.39417267,0.1870117200001
-84.96330261,-121.44535828,0.1870117200001
-84.99224854,-121.36121368,0.1870117200001
-84.98808289,-121.38047791,0.187133790000189
-84.98567963,-121.38124084,0.187133790000189
-84.96990967,-121.40901947,0.187133790000189
-84.967659,-121.40257263,0.187133790000189
-84.97914886,-121.44568634,0.18725586000005
-84.96219635,-121.37606049,0.18725586000005
-84.96405029,-121.38774109,0.18725586000005
-84.9587326,-121.37071991,0.187377930000139
-84.97473907,-121.43398285,0.187377930000139
-84.97638702,-121.36895752,0.187377930000139
-84.97200775,-121.36463928,0.187622070000089
-84.96099854,-121.42032623,0.187866210000038
-84.96417999,-121.40882874,0.187866210000038
-84.95552826,-121.43598938,0.187866210000038
-84.96798706,-121.44674683,0.187866210000038
-84.98668671,-121.44409943,0.187866210000038
-84.97215271,-121.44245148,0.187866210000038
-84.97855377,-121.37399292,0.187988280000127
-84.97415161,-121.35341644,0.187988280000127
-84.95881653,-121.38260651,0.187988280000127
-84.98950958,-121.44274902,0.188110350000215
-84.98191071,-121.3704834,0.188232420000077
-84.97409821,-121.38205719,0.188232420000077
-84.96869659,-121.42173004,0.188232420000077
-84.96913147,-121.39163971,0.188232420000077
-84.98316193,-121.3814621,0.188354500000059
-84.98310852,-121.37380219,0.188354500000059
-84.97293854,-121.37898254,0.188354500000059
-84.97881317,-121.44007874,0.188354500000059
-84.97016907,-121.41256714,0.188354500000059
-84.97045898,-121.36210632,0.188476570000148
-84.98667145,-121.4438324,0.188598640000009
-84.97161865,-121.44016266,0.188598640000009
-84.96793365,-121.40287018,0.188598640000009
-84.96027374,-121.44313812,0.188598640000009
-84.97354126,-121.36708832,0.188720710000098
-84.96617889,-121.44599152,0.188720710000098
-84.97020721,-121.373703,0.188720710000098
-84.96611786,-121.39720917,0.188720710000098
-84.98059082,-121.35485077,0.188842780000186
-84.96453857,-121.39182281,0.188842780000186
-84.96263885,-121.409729,0.188842780000186
-84.95848846,-121.43731689,0.188964850000048
-84.96820068,-121.40615845,0.189331060000086
-84.96354675,-121.40779877,0.189331060000086
-84.97119904,-121.42546082,0.189331060000086
-84.9553833,-121.43850708,0.189331060000086
-84.96824646,-121.44403076,0.189331060000086
-84.96452332,-121.37492371,0.189331060000086
-84.98429108,-121.37709045,0.189453130000174
-84.99118042,-121.44464874,0.189453130000174
-84.97148132,-121.35028076,0.189575200000036
-84.95861816,-121.38845825,0.189575200000036
-84.98747253,-121.38256073,0.189697270000124
-84.97373199,-121.3754425,0.189697270000124
-84.96331787,-121.40453339,0.189697270000124
-84.96620941,-121.38960266,0.189697270000124
-84.98583221,-121.38083649,0.189819340000213
-84.99545288,-121.44680786,0.189819340000213
-84.95539093,-121.41506958,0.189819340000213
-84.96630096,-121.44991302,0.189819340000213
-84.96034241,-121.44593048,0.189819340000213
-84.98705292,-121.36705017,0.189941410000074
-84.97044373,-121.40659332,0.189941410000074
-84.96559906,-121.44283295,0.189941410000074
-84.99038696,-121.43968201,0.190063480000163
-84.97048187,-121.41262054,0.190063480000163
-84.97084045,-121.39408112,0.190063480000163
-84.97952271,-121.36807251,0.190063480000163
-84.97840118,-121.43958282,0.190185550000024
-84.96381378,-121.41133881,0.190307620000112
-84.98906708,-121.36197662,0.190307620000112
-84.98181915,-121.42790222,0.190429690000201
-84.96694183,-121.40984344,0.190551760000062
-84.9578476,-121.43946838,0.190551760000062
-84.97577667,-121.44425964,0.190673830000151
-84.99269104,-121.44709015,0.190795900000012
-84.96846771,-121.40644836,0.190795900000012
-84.97190094,-121.4267807,0.190795900000012
-84.96633911,-121.38345337,0.190795900000012
-84.98709869,-121.37593842,0.1909179700001
-84.9732132,-121.36808777,0.1909179700001
-84.97415161,-121.38117981,0.1909179700001
-84.9573288,-121.36781311,0.1909179700001
-84.95780945,-121.37384033,0.1909179700001
-84.96781158,-121.37003326,0.1909179700001
-84.97273254,-121.37259674,0.1909179700001
-84.95807648,-121.40072632,0.19116211000005
-84.97271729,-121.36205292,0.191284180000139
-84.96808624,-121.44680786,0.191284180000139
-84.97090149,-121.40765381,0.19140625
-84.95890808,-121.4369278,0.19140625
-84.99404907,-121.37499237,0.191528320000089
-84.99591064,-121.44538116,0.191528320000089
-84.97041321,-121.43778229,0.191528320000089
-84.98046112,-121.44277191,0.191528320000089
-84.97119141,-121.41369629,0.191528320000089
-84.98748016,-121.3814621,0.191650390000177
-84.99743652,-121.44786072,0.191650390000177
-84.97429657,-121.41570282,0.191650390000177
-84.9601593,-121.44568634,0.191650390000177
-84.969841,-121.36415863,0.191772460000038
-84.97701263,-121.37902069,0.191894530000127
-84.96463013,-121.42281342,0.191894530000127
-84.96798706,-121.40016174,0.191894530000127
-84.96485901,-121.39214325,0.191894530000127
-84.95916748,-121.40071869,0.191894530000127
-84.96273804,-121.40953064,0.191894530000127
-84.97595215,-121.43314362,0.191894530000127
-84.97956085,-121.44415283,0.192016600000215
-84.97392273,-121.42936707,0.192016600000215
-84.98757935,-121.35942078,0.192016600000215
-84.97689819,-121.36975861,0.192138670000077
-84.96492004,-121.36254883,0.192138670000077
-84.96166229,-121.43953705,0.192138670000077
-84.96144104,-121.44228363,0.192138670000077
-84.99060059,-121.4382782,0.192260750000059
-84.95368195,-121.35037231,0.192260750000059
-84.96562195,-121.36962891,0.192260750000059
-84.96587372,-121.40827179,0.192260750000059
-84.96318054,-121.38703918,0.192382820000148
-84.95906067,-121.44602966,0.192382820000148
-84.96398163,-121.38755798,0.192504890000009
-84.96927643,-121.44817352,0.192504890000009
-84.98148346,-121.44602203,0.192871100000048
-84.9679184,-121.41747284,0.192871100000048
-84.98326874,-121.37230682,0.192993170000136
-84.98864746,-121.37732697,0.192993170000136
-84.9817276,-121.42756653,0.192993170000136
-84.98137665,-121.44436646,0.192993170000136
-84.96520996,-121.36560059,0.193115240000225
-84.96054077,-121.40284729,0.193115240000225
-84.96082306,-121.44425964,0.193115240000225
-84.96195221,-121.36804199,0.193237310000086
-84.96328735,-121.37081909,0.193359380000174
-84.98317719,-121.36701965,0.193481450000036
-84.98052979,-121.44580841,0.193481450000036
-84.97026825,-121.43376923,0.193481450000036
-84.98708344,-121.44228363,0.193603520000124
-84.98410797,-121.44519043,0.193603520000124
-84.97080994,-121.44798279,0.193603520000124
-84.97215271,-121.44537354,0.193725590000213
-84.99559021,-121.44638062,0.193847660000074
-84.96875,-121.40400696,0.193847660000074
-84.96327972,-121.44194794,0.193847660000074
-84.96534729,-121.39881134,0.193847660000074
-84.9730835,-121.36876678,0.193969730000163
-84.98496246,-121.36691284,0.193969730000163
-84.96604919,-121.39703369,0.193969730000163
-84.96990204,-121.40862274,0.193969730000163
-84.96533203,-121.38368225,0.193969730000163
-84.99922943,-121.38659668,0.194213870000112
-84.96035767,-121.39108276,0.194213870000112
-84.95747375,-121.43624115,0.194335940000201
-84.96713257,-121.37406158,0.194335940000201
-84.97413635,-121.37389374,0.194458010000062
-84.95465088,-121.4402771,0.194580080000151
-84.98217773,-121.4261322,0.194702150000012
-84.9702301,-121.4239502,0.194702150000012
-84.99018097,-121.44004822,0.1948242200001
-84.95298767,-121.36676788,0.1948242200001
-84.98098755,-121.36660767,0.1948242200001
-84.95924377,-121.40101624,0.1948242200001
-84.96484375,-121.38642883,0.1948242200001
-84.98930359,-121.38298798,0.194946290000189
-84.98033142,-121.44582367,0.194946290000189
-84.9648819,-121.4443512,0.194946290000189
-84.96990967,-121.35030365,0.19506836000005
-84.96048737,-121.38493347,0.19506836000005
-84.98953247,-121.37425232,0.195190430000139
-84.96595764,-121.41458893,0.195190430000139
-84.97692108,-121.36511993,0.195190430000139
-84.97846222,-121.4475708,0.1953125
-84.96748352,-121.40167999,0.195434570000089
-84.96694183,-121.38307953,0.195678710000038
-84.96700287,-121.39837646,0.195678710000038
-84.9597702,-121.43945313,0.195678710000038
-84.95825195,-121.44284058,0.195678710000038
-84.96154785,-121.37187195,0.195800780000127
-84.95841217,-121.36385345,0.195800780000127
-84.97702026,-121.43704224,0.195800780000127
-84.95597839,-121.43663788,0.195922850000215
-84.95642853,-121.36984253,0.196044920000077
-84.98246002,-121.37593079,0.196167000000059
-84.95162201,-121.36266327,0.196167000000059
-84.96961212,-121.42292023,0.196167000000059
-84.96626282,-121.4464798,0.196167000000059
-84.95950317,-121.36740875,0.196289070000148
-84.99751282,-121.38374329,0.196289070000148
-84.96790314,-121.39344025,0.196289070000148
-84.96061707,-121.4031601,0.196289070000148
-84.96904755,-121.36669922,0.196411140000009
-84.96505737,-121.40100098,0.196411140000009
-84.97041321,-121.44561768,0.196411140000009
-84.96389771,-121.36035156,0.196533210000098
-84.97358704,-121.4302063,0.196533210000098
-84.96846771,-121.4183197,0.196533210000098
-84.95155334,-121.43579865,0.196533210000098
-84.96272278,-121.44696045,0.196533210000098
-84.96495819,-121.36421204,0.196655280000186
-84.96147919,-121.39871216,0.196655280000186
-84.97859192,-121.44294739,0.196655280000186
-84.96492767,-121.44763947,0.196655280000186
-84.96224976,-121.36968231,0.196777350000048
-84.96633911,-121.39433289,0.196777350000048
-84.97019958,-121.42658234,0.196899420000136
-84.97196198,-121.36351013,0.197021490000225
-84.97567749,-121.3752594,0.197021490000225
-84.98284149,-121.36628723,0.197021490000225
-84.98394775,-121.36512756,0.197265630000174
-84.96833038,-121.38522339,0.197387700000036
-84.96143341,-121.41902161,0.197509770000124
-84.96833801,-121.39148712,0.197509770000124
-84.95874023,-121.38240051,0.197509770000124
-84.97911835,-121.44602966,0.197509770000124
-84.96620178,-121.36775208,0.197631840000213
-84.97438049,-121.43309784,0.197631840000213
-84.99913788,-121.35333252,0.197631840000213
-84.98078918,-121.36408997,0.197753910000074
-84.96321106,-121.37216187,0.197753910000074
-84.96018982,-121.36464691,0.197875980000163
-84.97785187,-121.44963837,0.197875980000163
-84.96851349,-121.41834259,0.197875980000163
-84.98596954,-121.44730377,0.197875980000163
-84.96225739,-121.43589783,0.197875980000163
-84.98310089,-121.37291718,0.197998050000024
-84.9613266,-121.36260986,0.197998050000024
-84.97975159,-121.44480896,0.197998050000024
-84.98023987,-121.44811249,0.197998050000024
-84.96652985,-121.44377136,0.197998050000024
-84.9852066,-121.37325287,0.198120120000112
-84.96279907,-121.39613342,0.198120120000112
-84.95159149,-121.36258698,0.198242190000201
-84.96150208,-121.39272308,0.198242190000201
-84.95887756,-121.39727783,0.198242190000201
-84.96943665,-121.42269135,0.198242190000201
-84.96499634,-121.44416046,0.198242190000201
-84.95841217,-121.39440155,0.198242190000201
-84.98898315,-121.44425201,0.198364260000062
-84.98161316,-121.43692017,0.198364260000062
-84.99098969,-121.4440918,0.198486330000151
-84.9584198,-121.39373779,0.198486330000151
-84.95966339,-121.44197845,0.198486330000151
-84.97704315,-121.37082672,0.198608400000012
-84.95947266,-121.4444809,0.198608400000012
-84.97621155,-121.43576813,0.1987304700001
-84.96618652,-121.39385223,0.198852540000189
-84.96111298,-121.39470673,0.19897461000005
-84.96051788,-121.44081116,0.19897461000005
-84.99526215,-121.44624329,0.199096680000139
-84.96051025,-121.4159317,0.19921875
-84.98970032,-121.37277222,0.199340820000089
-84.96524048,-121.4479599,0.199462890000177
-84.9719162,-121.36342621,0.199584960000038
-84.96482086,-121.44390869,0.199707030000127
-84.96307373,-121.44703674,0.199707030000127
-84.99284363,-121.44568634,0.199829100000215
-84.95052338,-121.43425751,0.199829100000215
-84.96095276,-121.36184692,0.199951170000077
-84.96053314,-121.36408234,0.199951170000077
-84.96029663,-121.36402893,0.200073250000059
-84.96569061,-121.37828064,0.200073250000059
-84.95996857,-121.38735962,0.200073250000059
-84.97895813,-121.44602966,0.200073250000059
-84.96794128,-121.42008972,0.200073250000059
-84.96270752,-121.37779236,0.200195320000148
-84.98532104,-121.37262726,0.200317390000009
-84.96076202,-121.40296936,0.200317390000009
-84.97557068,-121.43824768,0.200561530000186
-84.96750641,-121.38420105,0.200683600000048
-84.96980286,-121.39340973,0.200683600000048
-84.99497986,-121.35428619,0.200683600000048
-84.96804047,-121.43425751,0.200683600000048
-84.9807663,-121.44538879,0.200805670000136
-84.98510742,-121.36549377,0.201049810000086
-84.98182678,-121.43708038,0.201049810000086
-84.97200775,-121.42945099,0.201049810000086
-84.96753693,-121.44815826,0.201049810000086
-84.97998047,-121.4400177,0.201171880000174
-84.96893311,-121.39510345,0.201171880000174
-84.97740173,-121.35739899,0.201293950000036
-84.9620285,-121.39029694,0.201293950000036
-84.96264648,-121.4465332,0.201293950000036
-84.96292877,-121.37213135,0.201293950000036
-84.97653198,-121.3795166,0.201416020000124
-84.96190643,-121.36621094,0.201416020000124
-84.96572113,-121.37528992,0.201416020000124
-84.95142365,-121.38417053,0.201416020000124
-84.96647644,-121.36678314,0.201538090000213
-84.95558167,-121.37210083,0.201538090000213
-84.95147705,-121.43235779,0.201538090000213
-84.96394348,-121.44612885,0.201538090000213
-84.96080017,-121.39642334,0.201538090000213
-84.97766876,-121.44394684,0.201660160000074
-84.96572876,-121.41693115,0.201660160000074
-84.97467041,-121.36199951,0.201782230000163
-84.95664978,-121.44004059,0.201782230000163
-84.99665833,-121.44940948,0.201904300000024
-84.95922852,-121.35899353,0.201904300000024
-84.97498322,-121.3769989,0.202026370000112
-84.96057892,-121.40599823,0.202270510000062
-84.97679138,-121.37098694,0.202392580000151
-84.96798706,-121.38200378,0.202392580000151
-84.97907257,-121.44883728,0.202514650000012
-84.96099854,-121.35588074,0.2026367200001
-84.95880127,-121.35520172,0.2026367200001
-84.95877075,-121.39080811,0.2026367200001
-84.98532104,-121.3640976,0.202758790000189
-84.97988892,-121.4344635,0.202758790000189
-84.96848297,-121.39183044,0.202758790000189
-84.96205902,-121.39057159,0.202758790000189
-84.974823,-121.37010956,0.20288086000005
-84.97744751,-121.35742188,0.20288086000005
-84.96305847,-121.36808014,0.20288086000005
-84.97116089,-121.42816162,0.20288086000005
-84.95954132,-121.44203949,0.20288086000005
-84.96800995,-121.42038727,0.203002930000139
-84.97206116,-121.43273926,0.203002930000139
-84.96153259,-121.43897247,0.203002930000139
-84.98499298,-121.37361145,0.203125
-84.96305084,-121.43208313,0.203125
-84.99546051,-121.35693359,0.203247070000089
-84.96945953,-121.37036896,0.203247070000089
-84.96688843,-121.3737793,0.203369140000177
-84.96556854,-121.37480927,0.203369140000177
-84.97634888,-121.37998962,0.203491210000038
-84.95802307,-121.35163879,0.203491210000038
-84.9581604,-121.3957901,0.203491210000038
-84.98571777,-121.37957001,0.203613280000127
-84.98600769,-121.4449234,0.203613280000127
-84.96613312,-121.36131287,0.203613280000127
-84.96562958,-121.3901062,0.203613280000127
-84.97403717,-121.42923737,0.203735350000215
-84.95681763,-121.39694977,0.203735350000215
-84.97976685,-121.44991302,0.203735350000215
-84.97480011,-121.43974304,0.203735350000215
-84.95578766,-121.38304901,0.203735350000215
-84.95974731,-121.40444946,0.203857420000077
-84.97444916,-121.36222076,0.203979500000059
-84.99878693,-121.44863892,0.203979500000059
-84.96523285,-121.35372162,0.203979500000059
-84.96639252,-121.36643982,0.204101570000148
-84.95413208,-121.35575104,0.204101570000148
-84.97090149,-121.42562103,0.204101570000148
-84.96346283,-121.39246368,0.204101570000148
-84.97297668,-121.3540802,0.204223640000009
-84.96826935,-121.38230133,0.204223640000009
-84.96534729,-121.39221191,0.204223640000009
-84.96099854,-121.36141968,0.204345710000098
-84.96148682,-121.35668945,0.204345710000098
-84.96810913,-121.39082336,0.204345710000098
-84.99648285,-121.44986725,0.204467780000186
-84.96240997,-121.36428833,0.204467780000186
-84.97113037,-121.36595154,0.204589850000048
-84.95020294,-121.3598175,0.204589850000048
-84.96096802,-121.44367981,0.204589850000048
-84.96582031,-121.37406158,0.204589850000048
-84.97042847,-121.43627167,0.204711920000136
-84.96502686,-121.39183807,0.204833990000225
-84.97077942,-121.42739868,0.204833990000225
-84.97033691,-121.42987823,0.204833990000225
-84.95558929,-121.38890839,0.204833990000225
-84.97817993,-121.44933319,0.204833990000225
-84.99436188,-121.4495163,0.204956060000086
-84.96768951,-121.38678741,0.205078130000174
-84.96762848,-121.37124634,0.205200200000036
-84.98570251,-121.43958282,0.205200200000036
-84.96526337,-121.38909912,0.205200200000036
-84.96470642,-121.41539001,0.205200200000036
-84.97093201,-121.44785309,0.205322270000124
-84.97289276,-121.42563629,0.205444340000213
-84.96942139,-121.38091278,0.205444340000213
-84.95585632,-121.44962311,0.205444340000213
-84.97376251,-121.43768311,0.205566410000074
-84.95574951,-121.39212036,0.205688480000163
-84.95420074,-121.39276123,0.205688480000163
-84.96855164,-121.38259888,0.205932620000112
-84.97373962,-121.43492126,0.205932620000112
-84.96819305,-121.39360809,0.206054690000201
-84.97892761,-121.44561768,0.206054690000201
-84.95774841,-121.38928223,0.206176760000062
-84.97080994,-121.42440796,0.206176760000062
-84.96108246,-121.38150787,0.206176760000062
-84.96884918,-121.3660965,0.206298830000151
-84.96872711,-121.39128876,0.206298830000151
-84.97605133,-121.3651123,0.206420900000012
-84.97972107,-121.37661743,0.206420900000012
-84.96526337,-121.38636017,0.206420900000012
-84.96855927,-121.37634277,0.2065429700001
-84.95601654,-121.39868164,0.2065429700001
-84.96260071,-121.36431885,0.206665040000189
-84.97821045,-121.43904877,0.206665040000189
-84.97505188,-121.44368744,0.20678711000005
-84.95810699,-121.43948364,0.20678711000005
-84.96820068,-121.37052155,0.20678711000005
-84.9921875,-121.38014221,0.206909180000139
-84.96340179,-121.41030121,0.206909180000139
-84.97239685,-121.42681122,0.20703125
-84.97621918,-121.43890381,0.20703125
-84.96032715,-121.3632431,0.207153320000089
-84.95645142,-121.39344788,0.207153320000089
-84.9808197,-121.44853973,0.207153320000089
-84.9753418,-121.36512756,0.207275390000177
-84.95800781,-121.38957214,0.207397460000038
-84.97525024,-121.4449234,0.207519530000127
-84.96726227,-121.3772583,0.207519530000127
-84.95481873,-121.38619232,0.207519530000127
-84.95011902,-121.44477844,0.207519530000127
-84.98932648,-121.44995117,0.207641600000215
-84.95285797,-121.37397003,0.207641600000215
-84.97241974,-121.36122131,0.207763670000077
-84.96595764,-121.38117218,0.207763670000077
-84.98052979,-121.44828033,0.207763670000077
-84.98306274,-121.36013031,0.207885750000059
-84.95892334,-121.36016846,0.208007820000148
-84.9690094,-121.37438965,0.208007820000148
-84.97779083,-121.43527222,0.208007820000148
-84.95715332,-121.39745331,0.208007820000148
-84.97795105,-121.43847656,0.208129890000009
-84.96665955,-121.39151001,0.208129890000009
-84.97827148,-121.44207764,0.208129890000009
-84.96701813,-121.41587067,0.208129890000009
-84.95625305,-121.38845825,0.208129890000009
-84.96414185,-121.43811035,0.208251960000098
-84.99694061,-121.44731903,0.208374030000186
-84.95937347,-121.38868713,0.208374030000186
-84.9567337,-121.39350128,0.208374030000186
-84.98182678,-121.43434143,0.208496100000048
-84.9759903,-121.43714905,0.208496100000048
-84.96769714,-121.44915009,0.208496100000048
-84.98574066,-121.44503021,0.208618170000136
-84.96066284,-121.35331726,0.208618170000136
-84.96000671,-121.38699341,0.208618170000136
-84.97602081,-121.43563843,0.208618170000136
-84.97485352,-121.360672,0.208740240000225
-84.98130035,-121.43531036,0.208740240000225
-84.96337128,-121.38900757,0.208740240000225
-84.96813965,-121.36981964,0.208862310000086
-84.95539856,-121.39465332,0.208862310000086
-84.95749664,-121.4384613,0.208862310000086
-84.96923828,-121.36865997,0.209106450000036
-84.95828247,-121.39012146,0.209106450000036
-84.95581818,-121.38941956,0.209228520000124
-84.9686203,-121.4182663,0.209350590000213
-84.96208191,-121.36559296,0.209472660000074
-84.98081207,-121.44857025,0.209472660000074
-84.97783661,-121.43530273,0.209472660000074
-84.9682312,-121.36814117,0.209594730000163
-84.9648819,-121.37960815,0.209594730000163
-84.9681778,-121.37046051,0.209594730000163
-84.95407867,-121.40154266,0.209594730000163
-84.99410248,-121.44965363,0.209716800000024
-84.98088074,-121.43226624,0.209716800000024
-84.97811127,-121.4383316,0.209716800000024
-84.99372864,-121.35735321,0.209716800000024
-84.98419189,-121.44249725,0.209838870000112
-84.95281982,-121.37389374,0.209838870000112
-84.97648621,-121.44464111,0.209838870000112
-84.96531677,-121.377388,0.209838870000112
-84.95932007,-121.35848236,0.209960940000201
-84.96375275,-121.37174988,0.209960940000201
-84.95926666,-121.40023804,0.209960940000201
-84.96685791,-121.37374878,0.210083010000062
-84.95809174,-121.39286804,0.210083010000062
-84.96264648,-121.37081146,0.210205080000151
-84.97608948,-121.43868256,0.210205080000151
-84.96340179,-121.38928986,0.2104492200001
-84.96231842,-121.44754791,0.2104492200001
-84.95464325,-121.43399811,0.21069336000005
-84.96926117,-121.36456299,0.210815430000139
-84.96604919,-121.38121796,0.210815430000139
-84.97855377,-121.43637848,0.2109375
-84.9695816,-121.4196167,0.211059570000089
-84.95574188,-121.38848114,0.211059570000089
-84.96166992,-121.39241791,0.211181640000177
-84.97881317,-121.43966675,0.211425780000127
-84.96247101,-121.38088226,0.211425780000127
-84.96166992,-121.38941956,0.211547850000215
-84.96176147,-121.40422058,0.211547850000215
-84.97772217,-121.44084167,0.211669920000077
-84.97025299,-121.37605286,0.211792000000059
-84.96910095,-121.44856262,0.211792000000059
-84.97841644,-121.44587708,0.211914070000148
-84.96344757,-121.38931274,0.211914070000148
-84.97158813,-121.42305756,0.211914070000148
-84.96958923,-121.37174225,0.212036140000009
-84.9645462,-121.38162231,0.212036140000009
-84.97025299,-121.36814117,0.212158210000098
-84.9597168,-121.35678101,0.212158210000098
-84.96736145,-121.37457275,0.212158210000098
-84.95527649,-121.39118195,0.212158210000098
-84.98683167,-121.44680786,0.212158210000098
-84.97557831,-121.36676788,0.212280280000186
-84.97360229,-121.36463165,0.212402350000048
-84.96324158,-121.36882019,0.212402350000048
-84.95877838,-121.35588074,0.212402350000048
-84.97293091,-121.44452667,0.212402350000048
-84.96343231,-121.44750214,0.212524420000136
-84.98445892,-121.37386322,0.212646490000225
-84.97609711,-121.37175751,0.212646490000225
-84.96363068,-121.37754822,0.212646490000225
-84.96543121,-121.44766235,0.212646490000225
-84.95720673,-121.4006424,0.212646490000225
-84.96058655,-121.39084625,0.212768560000086
-84.96247101,-121.40529633,0.212768560000086
-84.97453308,-121.4275589,0.212768560000086
-84.95336914,-121.43192291,0.212768560000086
-84.95410919,-121.35295868,0.213012700000036
-84.96704102,-121.39186859,0.213012700000036
-84.98139191,-121.37754059,0.213134770000124
-84.97865295,-121.44243622,0.213134770000124
-84.97657776,-121.4335022,0.213134770000124
-84.96475983,-121.37406158,0.213134770000124
-84.95953369,-121.39504242,0.213500980000163
-84.95912933,-121.39701843,0.213500980000163
-84.97640228,-121.43599701,0.213500980000163
-84.97641754,-121.36347961,0.213623050000024
-84.96440125,-121.39066315,0.213623050000024
-84.96363068,-121.37480164,0.213745120000112
-84.97994232,-121.43578339,0.213745120000112
-84.96917725,-121.37123108,0.213867190000201
-84.98108673,-121.44037628,0.213867190000201
-84.98291779,-121.44905853,0.213867190000201
-84.95313263,-121.35214996,0.213989260000062
-84.9647522,-121.40876007,0.214111330000151
-84.96307373,-121.39182281,0.214233400000012
-84.98114777,-121.44290161,0.214233400000012
-84.96761322,-121.44876862,0.214233400000012
-84.97084045,-121.36614227,0.2143554700001
-84.96795654,-121.39019775,0.2143554700001
-84.9622879,-121.36434174,0.214477540000189
-84.97390747,-121.3637085,0.21459961000005
-84.98908234,-121.39862823,0.21459961000005
-84.95809937,-121.35523987,0.21459961000005
-84.97032928,-121.37609863,0.214721680000139
-84.98309326,-121.44081116,0.214721680000139
-84.95900726,-121.4406662,0.214721680000139
-84.95498657,-121.36608887,0.21484375
-84.96067047,-121.37808228,0.21484375
-84.96076202,-121.38136292,0.214965820000089
-84.97148132,-121.44499207,0.214965820000089
-84.97418213,-121.42330933,0.215087890000177
-84.95095825,-121.3712616,0.215209960000038
-84.95966339,-121.43897247,0.215209960000038
-84.98193359,-121.37529755,0.215332030000127
-84.96523285,-121.40956116,0.215332030000127
-84.97341919,-121.37535095,0.215454100000215
-84.962883,-121.38831329,0.215454100000215
-84.9609375,-121.39392853,0.215454100000215
-84.96375275,-121.44782257,0.215454100000215
-84.98329926,-121.36296082,0.215454100000215
-84.98206329,-121.44149017,0.215576170000077
-84.9834137,-121.44986725,0.215576170000077
-84.98631287,-121.44682312,0.215576170000077
-84.95851898,-121.36097717,0.215698250000059
-84.962883,-121.39157867,0.215698250000059
-84.95346832,-121.4349823,0.215698250000059
-84.95461273,-121.39214325,0.215698250000059
-84.96855927,-121.36630249,0.215820320000148
-84.96343994,-121.35768127,0.215820320000148
-84.96353912,-121.38636017,0.215820320000148
-84.95462036,-121.35820007,0.216064460000098
-84.96640778,-121.38182831,0.216064460000098
-84.96121979,-121.3563385,0.216186530000186
-84.98668671,-121.43624878,0.216186530000186
-84.96643066,-121.38809967,0.216186530000186
-84.97859955,-121.37902069,0.216430670000136
-84.96537781,-121.39202881,0.216430670000136
-84.96205902,-121.39277649,0.216430670000136
-84.96077728,-121.39945221,0.216430670000136
-84.97785187,-121.43791199,0.216430670000136
-84.99835968,-121.4495163,0.216552740000225
-84.95184326,-121.36820984,0.216674810000086
-84.96781158,-121.38671112,0.216674810000086
-84.97451782,-121.37779999,0.216796880000174
-84.98674774,-121.37399292,0.216918950000036
-84.96524048,-121.40682983,0.216918950000036
-84.97042847,-121.38542175,0.217041020000124
-84.97444916,-121.42385864,0.217041020000124
-84.95809937,-121.38764954,0.217041020000124
-84.96840668,-121.35829163,0.217163090000213
-84.98091888,-121.43740845,0.217163090000213
-84.98235321,-121.44805908,0.217163090000213
-84.95703888,-121.43477631,0.217163090000213
-84.97579956,-121.4436264,0.217163090000213
-84.95758057,-121.35650635,0.217285160000074
-84.96096802,-121.35604858,0.217285160000074
-84.96359253,-121.38639069,0.217285160000074
-84.96315765,-121.39187622,0.217407230000163
-84.9809494,-121.43389893,0.217407230000163
-84.98053741,-121.43914032,0.217407230000163
-84.96621704,-121.4490509,0.217407230000163
-84.97460938,-121.38439941,0.217529300000024
-84.95307922,-121.43421936,0.217529300000024
-84.9594574,-121.36557007,0.217651370000112
-84.95876312,-121.39053345,0.217651370000112
-84.97247314,-121.36797333,0.217773440000201
-84.9643631,-121.3719635,0.217773440000201
-84.97943878,-121.44055939,0.217895510000062
-84.96305084,-121.37731171,0.217895510000062
-84.96662903,-121.40870667,0.218017580000151
-84.9849472,-121.36234283,0.218017580000151
-84.9805603,-121.44725037,0.218139650000012
-84.95844269,-121.39086914,0.218139650000012
-84.96470642,-121.38523865,0.2182617200001
-84.96217346,-121.38076782,0.2182617200001
-84.96838379,-121.36675262,0.218383790000189
-84.96034241,-121.3899231,0.21850586000005
-84.97441101,-121.37371826,0.218627930000139
-84.98143768,-121.43772125,0.218627930000139
-84.98282623,-121.4488678,0.218627930000139
-84.9808197,-121.37872314,0.21875
-84.97425842,-121.38523865,0.21875
-84.98690796,-121.37361908,0.218872070000089
-84.96891022,-121.37300873,0.218872070000089
-84.9542923,-121.35917664,0.218872070000089
-84.96539307,-121.36837769,0.218872070000089
-84.95670319,-121.43978882,0.218872070000089
-84.9870224,-121.4466095,0.218872070000089
-84.98278809,-121.37957764,0.218994140000177
-84.96614075,-121.35816193,0.219116210000038
-84.95001221,-121.35413361,0.219116210000038
-84.9691925,-121.38285065,0.219116210000038
-84.97001648,-121.41400909,0.219116210000038
-84.9625473,-121.44853973,0.219238280000127
-84.9706192,-121.36650848,0.219360350000215
-84.95661926,-121.35076141,0.219360350000215
-84.95693207,-121.36576843,0.219360350000215
-84.96190643,-121.38954926,0.219482420000077
-84.97921753,-121.43128967,0.219482420000077
-84.9774704,-121.4344101,0.219482420000077
-84.96050262,-121.44286346,0.219604500000059
-84.97891998,-121.44313812,0.219726570000148
-84.97174072,-121.37928772,0.219848640000009
-84.97379303,-121.37568665,0.219848640000009
-84.95876312,-121.44599152,0.219848640000009
-84.96389008,-121.38600922,0.219848640000009
-84.97337341,-121.38098907,0.219970710000098
-84.98757935,-121.43816376,0.219970710000098
-84.95973206,-121.39514923,0.219970710000098
-84.97399902,-121.38646698,0.220092780000186
-84.98642731,-121.44287109,0.220092780000186
-84.95928192,-121.38809967,0.220092780000186
-84.97548676,-121.43427277,0.220092780000186
-84.96228027,-121.44275665,0.220092780000186
-84.97341919,-121.41905975,0.220458990000225
-84.96539307,-121.44928741,0.220458990000225
-84.96627808,-121.3653183,0.220581060000086
-84.96988678,-121.38417816,0.220581060000086
-84.9641571,-121.39325714,0.220581060000086
-84.9875412,-121.43937683,0.220703130000174
-84.981987,-121.44757843,0.220703130000174
-84.95819092,-121.38952637,0.220825200000036
-84.96243286,-121.39939117,0.220825200000036
-84.96302032,-121.44634247,0.220825200000036
-84.96305084,-121.44934845,0.220947270000124
-84.98867798,-121.44879913,0.220947270000124
-84.98731232,-121.37191772,0.221069340000213
-84.96057129,-121.44891357,0.221069340000213
-84.95744324,-121.37197876,0.221191410000074
-84.96221924,-121.39260864,0.221191410000074
-84.97844696,-121.43852997,0.221191410000074
-84.97615814,-121.42932129,0.221191410000074
-84.96412659,-121.38423157,0.221313480000163
-84.97904205,-121.43105316,0.221313480000163
-84.95185852,-121.35787201,0.221435550000024
-84.98679352,-121.43882751,0.221435550000024
-84.97213745,-121.37760162,0.221557620000112
-84.97460175,-121.3844986,0.221557620000112
-84.97097778,-121.37323761,0.221679690000201
-84.96114349,-121.3937912,0.221679690000201
-84.974617,-121.42996216,0.221679690000201
-84.95658112,-121.35066986,0.221801760000062
-84.95652008,-121.36753845,0.221923830000151
-84.95897675,-121.37571716,0.222045900000012
-84.97718811,-121.36444092,0.222045900000012
-84.97015381,-121.36802673,0.2221679700001
-84.97345734,-121.41934204,0.2221679700001
-84.96616364,-121.38114929,0.222290040000189
-84.96195221,-121.37731171,0.22241211000005
-84.96502686,-121.44702148,0.22241211000005
-84.98441315,-121.35952759,0.22241211000005
-84.97325134,-121.38046265,0.222534180000139
-84.98094177,-121.44576263,0.222534180000139
-84.95146179,-121.43768311,0.222534180000139
-84.9627533,-121.37165833,0.222534180000139
-84.97712708,-121.38445282,0.22265625
-84.98889923,-121.44312286,0.22265625
-84.97550964,-121.42854309,0.22265625
-84.96089172,-121.39102173,0.222778320000089
-84.96291351,-121.39093018,0.222900390000177
-84.97621918,-121.43235779,0.222900390000177
-84.97969818,-121.44837952,0.222900390000177
-84.97133636,-121.37132263,0.223022460000038
-84.95629883,-121.36038971,0.223144530000127
-84.96922302,-121.40973663,0.223266600000215
-84.97714996,-121.43669891,0.223266600000215
-84.96427155,-121.3897934,0.223388670000077
-84.98834229,-121.38311005,0.223510750000059
-84.97245026,-121.37670135,0.223510750000059
-84.97499847,-121.3828125,0.223510750000059
-84.96816254,-121.37529755,0.223510750000059
-84.97969055,-121.44918823,0.223510750000059
-84.98565674,-121.44223022,0.223632820000148
-84.96198273,-121.38059235,0.223632820000148
-84.97440338,-121.42069244,0.223632820000148
-84.95706177,-121.43713379,0.223632820000148
-84.96424103,-121.38703918,0.223754890000009
-84.97467041,-121.42372131,0.223754890000009
-84.95739746,-121.37187958,0.223876960000098
-84.97541046,-121.36936188,0.223999030000186
-84.95671844,-121.36614227,0.224121100000048
-84.9648819,-121.37906647,0.224121100000048
-84.96244812,-121.44534302,0.224121100000048
-84.96185303,-121.39212036,0.224243170000136
-84.98883057,-121.44940948,0.224365240000225
-84.96135712,-121.44651031,0.224365240000225
-84.98045349,-121.44828796,0.224487310000086
-84.98188782,-121.44258118,0.224609380000174
-84.97875977,-121.44235992,0.224609380000174
-84.97834778,-121.44434357,0.224609380000174
-84.97824097,-121.4265213,0.224609380000174
-84.97379303,-121.42566681,0.224609380000174
-84.97625732,-121.43264008,0.224609380000174
-84.9697113,-121.41055298,0.224731450000036
-84.97731018,-121.42243958,0.224731450000036
-84.97766876,-121.38220978,0.224853520000124
-84.96562195,-121.38916779,0.224853520000124
-84.97669983,-121.42716217,0.224975590000213
-84.97696686,-121.4364624,0.224975590000213
-84.95578766,-121.44107056,0.225097660000074
-84.96166992,-121.38375854,0.225097660000074
-84.97129822,-121.37123871,0.225341800000024
-84.97924805,-121.37219238,0.225341800000024
-84.96247101,-121.38140106,0.225341800000024
-84.96587372,-121.39572144,0.225341800000024
-84.97180176,-121.38594818,0.225585940000201
-84.95794678,-121.36965942,0.225585940000201
-84.96472168,-121.38157654,0.225585940000201
-84.98381042,-121.44730377,0.225585940000201
-84.97312927,-121.37391663,0.225708010000062
-84.98787689,-121.44248199,0.225830080000151
-84.96208191,-121.38665009,0.225830080000151
-84.96367645,-121.39505005,0.225830080000151
-84.97828674,-121.42955017,0.225830080000151
-84.98832703,-121.44399261,0.225952150000012
-84.96925354,-121.38768005,0.225952150000012
-84.98796082,-121.38385773,0.2260742200001
-84.96614075,-121.36488342,0.2260742200001
-84.97490692,-121.38247681,0.2260742200001
-84.96340942,-121.36647034,0.2260742200001
-84.96395874,-121.37415314,0.2260742200001
-84.96595001,-121.40149689,0.226196290000189
-84.97789764,-121.44107056,0.226196290000189
-84.98074341,-121.36038208,0.226196290000189
-84.97412872,-121.3775177,0.22631836000005
-84.96768951,-121.36862946,0.226440430000139
-84.97026062,-121.37851715,0.226440430000139
-84.97747803,-121.43701935,0.226440430000139
-84.95533752,-121.36327362,0.2265625
-84.97692108,-121.42167664,0.2265625
-84.97627258,-121.42363739,0.2265625
-84.97115326,-121.42173004,0.226684570000089
-84.97933197,-121.44870758,0.226806640000177
-84.97666168,-121.44859314,0.226928710000038
-84.96076202,-121.36850739,0.227050780000127
-84.97322845,-121.42742157,0.227050780000127
-84.95343018,-121.3529129,0.227172850000215
-84.96910095,-121.3631897,0.227294920000077
-84.97714996,-121.38349152,0.227294920000077
-84.97956085,-121.44597626,0.227294920000077
-84.95294952,-121.43660736,0.227294920000077
-84.97612,-121.42916107,0.227417000000059
-84.97975159,-121.44374084,0.227539070000148
-84.96382141,-121.38304901,0.227539070000148
-84.97640991,-121.37750244,0.227661140000009
-84.96634674,-121.36348724,0.227661140000009
-84.96073914,-121.44300079,0.227661140000009
-84.96697998,-121.37928772,0.227783210000098
-84.96608734,-121.37470245,0.227905280000186
-84.99523926,-121.35359955,0.227905280000186
-84.95514679,-121.35507202,0.228027350000048
-84.96617126,-121.39302063,0.228027350000048
-84.97685242,-121.43598938,0.228027350000048
-84.95075226,-121.436203,0.228027350000048
-84.98906708,-121.37204742,0.228149420000136
-84.9569397,-121.36492157,0.228149420000136
-84.96389008,-121.37728882,0.228149420000136
-84.97161102,-121.41000366,0.228149420000136
-84.97083282,-121.37275696,0.228393560000086
-84.99034882,-121.44248199,0.228393560000086
-84.97432709,-121.42024994,0.228393560000086
-84.97483826,-121.4298172,0.228393560000086
-84.96412659,-121.37100983,0.228515630000174
-84.95684814,-121.37309265,0.228637700000036
-84.95523071,-121.43681335,0.228637700000036
-84.98908997,-121.38939667,0.228759770000124
-84.98932648,-121.44709015,0.228759770000124
-84.96305084,-121.38500977,0.228759770000124
-84.9729538,-121.41562653,0.228759770000124
-84.96350861,-121.39206696,0.228881840000213
-84.96414185,-121.37380219,0.228881840000213
-84.99128723,-121.38893127,0.229003910000074
-84.96621704,-121.39906311,0.229003910000074
-84.96595764,-121.38323975,0.229003910000074
-84.97077179,-121.41796875,0.229003910000074
-84.96214294,-121.44487762,0.229125980000163
-84.97537994,-121.37194824,0.229370120000112
-84.97686005,-121.43325043,0.229370120000112
-84.98574829,-121.37702942,0.229492190000201
-84.97868347,-121.43891907,0.229492190000201
-84.97666931,-121.3763504,0.229614260000062
-84.96643066,-121.39029694,0.229614260000062
-84.96550751,-121.38597107,0.229736330000151
-84.97736359,-121.43981934,0.229736330000151
-84.96688843,-121.36125183,0.229858400000012
-84.97371674,-121.42549133,0.229858400000012
-84.99031067,-121.44326019,0.2299804700001
-84.96882629,-121.3718338,0.230102540000189
-84.9746933,-121.37545776,0.23022461000005
-84.98249817,-121.44801331,0.23022461000005
-84.97537994,-121.36593628,0.23046875
-84.95482635,-121.43630219,0.23046875
-84.97440338,-121.36196136,0.23046875
-84.96810913,-121.40450287,0.230590820000089
-84.96353149,-121.37956238,0.230590820000089
-84.96447754,-121.39318085,0.230590820000089
-84.98004913,-121.44104767,0.230590820000089
-84.97052002,-121.3673172,0.230834960000038
-84.96470642,-121.39671326,0.230834960000038
-84.96762085,-121.36846924,0.230957030000127
-84.99365997,-121.38809967,0.230957030000127
-84.95922089,-121.37352753,0.230957030000127
-84.9694519,-121.40986633,0.230957030000127
-84.97464752,-121.42684174,0.230957030000127
-84.96994781,-121.41644287,0.231079100000215
-84.97644806,-121.43274689,0.231079100000215
-84.99639893,-121.35305023,0.231201170000077
-84.96768951,-121.35899353,0.231323250000059
-84.96443176,-121.38439941,0.231323250000059
-84.96375275,-121.37708282,0.231445320000148
-84.96552277,-121.3584137,0.231567390000009
-84.9908905,-121.37358093,0.231689460000098
-84.95646667,-121.37381744,0.231689460000098
-84.96656799,-121.37003326,0.231689460000098
-84.96537781,-121.3884964,0.231689460000098
-84.96492767,-121.39096832,0.231689460000098
-84.99595642,-121.38938141,0.231811530000186
-84.9887085,-121.39012146,0.231811530000186
-84.98110962,-121.38427734,0.231933600000048
-84.96347046,-121.40339661,0.231933600000048
-84.98323059,-121.44908905,0.231933600000048
-84.96884155,-121.3633194,0.232055670000136
-84.98995209,-121.39367676,0.232177740000225
-84.96405792,-121.39266205,0.232177740000225
-84.97987366,-121.44081116,0.232177740000225
-84.9764328,-121.37654877,0.232299810000086
-84.96520996,-121.3972702,0.232299810000086
-84.97757721,-121.43160248,0.232299810000086
-84.978508,-121.43567657,0.232299810000086
-84.96591949,-121.40109253,0.232421880000174
-84.9888382,-121.44129181,0.232543950000036
-84.96646881,-121.38131714,0.232543950000036
-84.97155762,-121.4188385,0.232543950000036
-84.99445343,-121.38583374,0.232666020000124
-84.95217896,-121.42935944,0.232666020000124
-84.95105743,-121.43077087,0.232666020000124
-84.96849823,-121.37281036,0.232788090000213
-84.97515106,-121.37982178,0.232788090000213
-84.97331238,-121.37258148,0.232910160000074
-84.96521759,-121.39766693,0.232910160000074
-84.96656036,-121.39311981,0.233032230000163
-84.99124146,-121.37165833,0.233154300000024
-84.96652985,-121.39035797,0.233154300000024
-84.9593277,-121.37290192,0.233398440000201
-84.9743576,-121.37641907,0.233520510000062
-84.98915863,-121.38868713,0.233520510000062
-84.96199799,-121.37145996,0.233520510000062
-84.99533844,-121.35014343,0.233520510000062
-84.97088623,-121.37203217,0.233642580000151
-84.95754242,-121.37046051,0.233642580000151
-84.96514893,-121.35916138,0.233764650000012
-84.99121857,-121.38876343,0.233764650000012
-84.96353912,-121.40318298,0.233764650000012
-84.9658432,-121.38028717,0.234008790000189
-84.96698761,-121.37010193,0.234008790000189
-84.96260071,-121.39935303,0.23413086000005
-84.97676086,-121.43006134,0.23413086000005
-84.95175934,-121.42884064,0.23413086000005
-84.96064758,-121.36824799,0.234252930000139
-84.9890976,-121.44023895,0.234252930000139
