"X","Y","Z"
-84.84899139,-121.50035858,0.00659179000012955
-84.84635162,-121.50241852,0.00756836000005023
-84.84265137,-121.50267029,0.0102538999999524
-84.84288788,-121.50019836,0.01171875
-84.84671021,-121.50028229,0.0136718700000529
-84.84519958,-121.50067139,0.0144042900001295
-84.84902191,-121.50048828,0.0158691399999498
-84.83712006,-121.50010681,0.0194091800001388
-84.84539032,-121.50353241,0.0198974600000383
-84.83831787,-121.50148773,0.0211181600000145
-84.84681702,-121.50517273,0.0213622999999643
-84.83538818,-121.50051117,0.0214843700000529
-84.83943176,-121.50032806,0.0218505800000912
-84.83970642,-121.50363159,0.0228271500000119
-84.8411026,-121.50276184,0.0250244100000145
-84.8380127,-121.50402832,0.0256347600000026
-84.84739685,-121.50602722,0.026000970000041
-84.84293365,-121.50543213,0.0262451099999907
-84.84912109,-121.50015259,0.0263671899999736
-84.84867859,-121.50263214,0.0266113299999233
-84.8453598,-121.50063324,0.0277099600000383
-84.84367371,-121.50627136,0.0279540999999881
-84.8390274,-121.50791168,0.0280761700000767
-84.84880066,-121.50518036,0.028808589999926
-84.8366394,-121.50698853,0.0295410100000026
-84.84145355,-121.50335693,0.0297851499999524
-84.84210205,-121.50167084,0.0302734399999736
-84.84658051,-121.50227356,0.0306396500000119
-84.84015656,-121.50128174,0.0313720700000886
-84.84374237,-121.50055695,0.0317382800001269
-84.84838104,-121.50218201,0.0318603499999881
-84.83866882,-121.50469208,0.032348630000115
-84.84529877,-121.50019836,0.032714839999926
-84.84066772,-121.50183868,0.0330810499999643
-84.84355164,-121.50032043,0.0332031200000529
-84.84603119,-121.50102234,0.0339355400001295
-84.84674072,-121.50485229,0.0343017600000621
-84.83547974,-121.50798035,0.0349121100000502
-84.84316254,-121.50282288,0.0350341800001388
-84.84651184,-121.50183868,0.0354003899999498
-84.84680176,-121.50488281,0.0361328100000264
-84.84835052,-121.50450897,0.0367431600000145
-84.84229279,-121.50177765,0.0367431600000145
-84.83638763,-121.50357056,0.0368652300001031
-84.83599091,-121.5058136,0.0378417900001295
-84.84127808,-121.50247192,0.0380859399999736
-84.84506226,-121.5022583,0.0382080100000621
-84.84290314,-121.50762177,0.0386962899999617
-84.84536743,-121.50832367,0.0390625
-84.84397888,-121.5007019,0.0400390600000264
-84.83776855,-121.5032196,0.040161130000115
-84.84137726,-121.50527191,0.0402831999999762
-84.83335876,-121.50187683,0.0402831999999762
-84.83898926,-121.50734711,0.0412597600000026
-84.84403992,-121.5037384,0.0415038999999524
-84.84095001,-121.50801086,0.0415038999999524
-84.84870911,-121.50511169,0.0417480400001295
-84.8418808,-121.50582886,0.0417480400001295
-84.84118652,-121.50228119,0.0428466800001388
-84.84011841,-121.50346375,0.0435790999999881
-84.84143829,-121.50282288,0.0443115200000648
-84.83641052,-121.50618744,0.044433589999926
-84.84858704,-121.50463867,0.0447997999999643
-84.84810638,-121.5013504,0.0451660100000026
-84.83396912,-121.50576019,0.0451660100000026
-84.83895111,-121.50966644,0.0457763599999907
-84.84287262,-121.5044632,0.0460205100000621
-84.84529114,-121.50566101,0.0461425799999233
-84.84815216,-121.50138092,0.0466308600000502
-84.84468079,-121.50137329,0.047973630000115
-84.83782196,-121.50285339,0.0489501899999141
-84.84784698,-121.50614929,0.0490722600000026
-84.84229279,-121.50372314,0.049438470000041
-84.83856201,-121.50643158,0.0495605400001295
-84.82675934,-121.50350189,0.0496826099999907
-84.84339905,-121.50256348,0.0499267600000621
