"X","Y","Z"
-84.99317932,-121.27218628,0.150024420000136
-84.98280334,-121.29187012,0.150024420000136
-84.96219635,-121.25541687,0.150146490000225
-84.95635223,-121.27400208,0.150146490000225
-84.95189667,-121.2723465,0.150146490000225
-84.96195221,-121.28282928,0.150268560000086
-84.95979309,-121.27610779,0.150268560000086
-84.95394135,-121.31922913,0.150390630000174
-84.99759674,-121.27481842,0.150390630000174
-84.96018982,-121.25559998,0.150390630000174
-84.96526337,-121.27703094,0.150390630000174
-84.97673035,-121.2911377,0.150390630000174
-84.96070862,-121.25598907,0.150512700000036
-84.97421265,-121.28658295,0.150512700000036
-84.96539307,-121.28079224,0.150512700000036
-84.9550705,-121.34526825,0.150512700000036
-84.96401978,-121.2675705,0.150512700000036
-84.97160339,-121.27423096,0.150634770000124
-84.98265839,-121.33178711,0.150756840000213
-84.98079681,-121.30024719,0.150878910000074
-84.96652985,-121.26677704,0.151000980000163
-84.96766663,-121.25631714,0.151000980000163
-84.96939087,-121.27288818,0.151000980000163
-84.97074127,-121.2854538,0.151000980000163
-84.97853088,-121.28752899,0.151000980000163
-84.96327972,-121.26818848,0.151123050000024
-84.9941864,-121.27143097,0.151245120000112
-84.96533966,-121.28201294,0.151245120000112
-84.95050049,-121.26876831,0.151245120000112
-84.96523285,-121.26422119,0.151367190000201
-84.97557831,-121.282341,0.151367190000201
-84.96521759,-121.27799988,0.151367190000201
-84.95240784,-121.27158356,0.151367190000201
-84.95326233,-121.34693909,0.151367190000201
-84.96961975,-121.27655029,0.151367190000201
-84.9548111,-121.3452301,0.151489260000062
-84.99176788,-121.26883698,0.151611330000151
-84.96643066,-121.25550079,0.151733400000012
-84.99127197,-121.32064819,0.151733400000012
-84.97888947,-121.28817749,0.1518554700001
-84.96784973,-121.25003052,0.151977540000189
-84.9641037,-121.25016022,0.151977540000189
-84.95776367,-121.25270844,0.151977540000189
-84.96999359,-121.28488922,0.151977540000189
-84.96282959,-121.27976227,0.15209961000005
-84.97595215,-121.28633118,0.15209961000005
-84.95948792,-121.27703857,0.15209961000005
-84.95130157,-121.33734131,0.152221680000139
-84.98497772,-121.26184082,0.15234375
-84.96164703,-121.27960205,0.152465820000089
-84.96492767,-121.34928131,0.152465820000089
-84.97254944,-121.28131104,0.152465820000089
-84.99555969,-121.33026886,0.152465820000089
-84.96984863,-121.27336121,0.152587890000177
-84.97283936,-121.28170776,0.152587890000177
-84.98792267,-121.29331207,0.152587890000177
-84.96317291,-121.34945679,0.152709960000038
-84.97411346,-121.27742767,0.152709960000038
-84.96048737,-121.25621033,0.152832030000127
-84.97911835,-121.25713348,0.152832030000127
-84.97663116,-121.28807831,0.152832030000127
-84.96298981,-121.27662659,0.152832030000127
-84.95747375,-121.2616806,0.152832030000127
-84.98795319,-121.29395294,0.152954100000215
-84.9727478,-121.2531662,0.152954100000215
-84.97103119,-121.25985718,0.153076170000077
-84.96704102,-121.28301239,0.153076170000077
-84.97045898,-121.25408173,0.153198250000059
-84.97609711,-121.27783966,0.153198250000059
-84.95950317,-121.25869751,0.153198250000059
-84.99887085,-121.27301788,0.153320320000148
-84.96907043,-121.25853729,0.153320320000148
-84.95039368,-121.25801849,0.153442390000009
-84.96765137,-121.2795105,0.153442390000009
-84.96720123,-121.34806824,0.153442390000009
-84.95291138,-121.34911346,0.153442390000009
-84.97714996,-121.25604248,0.153564460000098
-84.96608734,-121.28121185,0.153564460000098
-84.98084259,-121.28143311,0.153686530000186
-84.97776794,-121.28357697,0.153686530000186
-84.96465302,-121.25563049,0.153686530000186
-84.9805069,-121.28392029,0.153808600000048
-84.96195221,-121.25404358,0.153808600000048
-84.96427917,-121.26712799,0.153930670000136
-84.98642731,-121.28636169,0.153930670000136
-84.98545837,-121.29334259,0.153930670000136
-84.96600342,-121.26805115,0.154052740000225
-84.98548889,-121.26104736,0.154052740000225
-84.96592712,-121.34851074,0.154052740000225
-84.96616364,-121.27381134,0.154052740000225
-84.98442841,-121.28629303,0.154174810000086
-84.97702789,-121.28304291,0.154418950000036
-84.9776001,-121.28855896,0.154418950000036
-84.95185089,-121.25282288,0.154541020000124
-84.98573303,-121.28456116,0.154541020000124
-84.98422241,-121.28501892,0.154541020000124
-84.96595001,-121.26702881,0.154663090000213
-84.97187042,-121.2563324,0.154785160000074
-84.97483063,-121.2755127,0.154785160000074
-84.96724701,-121.27291107,0.154785160000074
-84.98178864,-121.30515289,0.154785160000074
-84.95118713,-121.32832336,0.154907230000163
-84.99452209,-121.26782227,0.154907230000163
-84.96517944,-121.27787781,0.154907230000163
-84.9677887,-121.25894165,0.155029300000024
-84.97342682,-121.2858963,0.155029300000024
-84.96665955,-121.2773819,0.155029300000024
-84.96891785,-121.27024078,0.155151370000112
-84.96272278,-121.27655029,0.155151370000112
-84.97619629,-121.25395203,0.155273440000201
-84.96177673,-121.25122833,0.155273440000201
-84.95787811,-121.28066254,0.155639650000012
-84.98396301,-121.28472137,0.155639650000012
-84.96417999,-121.25405121,0.155639650000012
-84.9627533,-121.27526855,0.1557617200001
-84.95391846,-121.26972961,0.1557617200001
-84.97958374,-121.28082275,0.155883790000189
-84.97525024,-121.28318024,0.155883790000189
-84.97316742,-121.26233673,0.15600586000005
-84.96642303,-121.26483154,0.15600586000005
-84.96472168,-121.26567078,0.156127930000139
-84.9937973,-121.26625824,0.156127930000139
-84.97296906,-121.26081848,0.156127930000139
-84.95197296,-121.25222015,0.15625
-84.96356201,-121.26551819,0.156494140000177
-84.95292664,-121.2691803,0.156494140000177
-84.97377014,-121.27459717,0.156616210000038
-84.98313904,-121.28546906,0.156616210000038
-84.977211,-121.26094055,0.156738280000127
-84.95111847,-121.25534058,0.156738280000127
-84.9644928,-121.25177002,0.156860350000215
-84.96022797,-121.26410675,0.156860350000215
-84.96018982,-121.29673004,0.156982420000077
-84.986763,-121.31310272,0.156982420000077
-84.97103882,-121.25823212,0.157104500000059
-84.98892212,-121.29194641,0.157104500000059
-84.96045685,-121.25811005,0.157226570000148
-84.97609711,-121.25637817,0.157348640000009
-84.95411682,-121.28595734,0.157470710000098
-84.95039368,-121.27005768,0.157470710000098
-84.95674133,-121.30841064,0.157592780000186
-84.96595764,-121.27606964,0.157592780000186
-84.96372223,-121.27574921,0.157592780000186
-84.9642334,-121.2743988,0.157714850000048
-84.97796631,-121.25243378,0.157714850000048
-84.9769516,-121.28417969,0.157714850000048
-84.97032928,-121.25668335,0.157714850000048
-84.96711731,-121.26290894,0.157714850000048
-84.97960663,-121.2792511,0.157836920000136
-84.9732666,-121.25852966,0.157836920000136
-84.96035767,-121.26335907,0.157836920000136
-84.99381256,-121.29711151,0.157836920000136
-84.97363281,-121.29200745,0.157836920000136
-84.96399689,-121.25119019,0.157958990000225
-84.95912933,-121.26830292,0.157958990000225
-84.97180176,-121.28099823,0.158081060000086
-84.95690155,-121.25583649,0.158081060000086
-84.97464752,-121.25431061,0.158203130000174
-84.9578476,-121.26293945,0.158203130000174
-84.96296692,-121.27545166,0.158325200000036
-84.95509338,-121.2714386,0.158325200000036
-84.99549866,-121.32382965,0.158325200000036
-84.95777893,-121.33493042,0.158447270000124
-84.9781723,-121.2614212,0.158569340000213
-84.95511627,-121.27043152,0.158569340000213
-84.97693634,-121.28414154,0.158691410000074
-84.95871735,-121.25198364,0.158691410000074
-84.98944092,-121.32324219,0.158691410000074
-84.95227814,-121.32385254,0.158813480000163
-84.97402954,-121.25000763,0.158813480000163
-84.95355225,-121.25685883,0.158813480000163
-84.98155975,-121.26477051,0.158935550000024
-84.99034119,-121.28756714,0.158935550000024
-84.98483276,-121.28790283,0.158935550000024
-84.98980713,-121.28830719,0.159057620000112
-84.99027252,-121.28981781,0.159057620000112
-84.97390747,-121.25375366,0.159179690000201
-84.95645905,-121.25968933,0.159179690000201
-84.96362305,-121.26909637,0.159301760000062
-84.97628021,-121.25756836,0.159301760000062
-84.95607758,-121.25077057,0.159301760000062
-84.97428131,-121.25775146,0.159545900000012
-84.95339203,-121.25382996,0.159545900000012
-84.95159912,-121.2707901,0.159545900000012
-84.9598999,-121.29669189,0.1596679700001
-84.98989105,-121.26226044,0.1596679700001
-84.9550705,-121.27165222,0.1596679700001
-84.9992981,-121.33016968,0.1596679700001
-84.98105621,-121.26447296,0.15991211000005
-84.96867371,-121.26856995,0.15991211000005
-84.96427917,-121.25845337,0.15991211000005
-84.95545197,-121.25901031,0.15991211000005
-84.98094177,-121.2604599,0.160034180000139
-84.95288849,-121.25354004,0.160278320000089
-84.95498657,-121.29026794,0.160400390000177
-84.95609283,-121.27089691,0.160400390000177
-84.95809174,-121.25119781,0.160400390000177
-84.96302032,-121.26512146,0.160522460000038
-84.96533966,-121.34928131,0.160522460000038
-84.98332977,-121.26351929,0.160644530000127
-84.96869659,-121.25177765,0.160644530000127
-84.96764374,-121.27726746,0.160644530000127
-84.97966003,-121.26113892,0.160766600000215
-84.97915649,-121.27664185,0.160766600000215
-84.99279785,-121.29180908,0.160766600000215
-84.97650909,-121.25778198,0.160888670000077
-84.98219299,-121.25995636,0.161010750000059
-84.97670746,-121.2828064,0.161010750000059
-84.98700714,-121.28914642,0.161010750000059
-84.95130157,-121.27172852,0.161010750000059
-84.98484039,-121.25528717,0.161132820000148
-84.97184753,-121.25486755,0.161254890000009
-84.96069336,-121.29441071,0.161376960000098
-84.98136902,-121.28569794,0.161376960000098
-84.96456909,-121.25849915,0.161376960000098
-84.9575119,-121.26220703,0.161499030000186
-84.97857666,-121.25531769,0.161621100000048
-84.96996307,-121.25128937,0.161621100000048
-84.97862244,-121.25406647,0.161743170000136
-84.95266724,-121.25222778,0.161743170000136
-84.97595978,-121.2512207,0.161865240000225
-84.97675323,-121.25775909,0.161865240000225
-84.95021057,-121.25064087,0.161865240000225
-84.95822906,-121.25015259,0.161987310000086
-84.98934937,-121.31085968,0.161987310000086
-84.99137115,-121.26197815,0.162109380000174
-84.9744873,-121.28144836,0.162109380000174
-84.9921875,-121.29103088,0.162109380000174
-84.96083832,-121.26248932,0.162109380000174
-84.99614716,-121.32801819,0.162109380000174
-84.98242188,-121.26017761,0.162231450000036
-84.9865036,-121.28909302,0.162231450000036
-84.96263885,-121.27065277,0.162231450000036
-84.97221375,-121.251091,0.162353520000124
-84.97731018,-121.25576019,0.162353520000124
-84.98013306,-121.2771225,0.162353520000124
-84.97444916,-121.25141144,0.162353520000124
-84.96227264,-121.26452637,0.162475590000213
-84.96932983,-121.27826691,0.162475590000213
-84.96032715,-121.28778839,0.162841800000024
-84.95069122,-121.29669189,0.162841800000024
-84.97097778,-121.25028229,0.162841800000024
-84.95822144,-121.25811768,0.162963870000112
-84.97222137,-121.28320313,0.162963870000112
-84.97271729,-121.25032806,0.163085940000201
-84.95999908,-121.26318359,0.163208010000062
-84.97680664,-121.25546265,0.163330080000151
-84.96237946,-121.26074982,0.163330080000151
-84.96835327,-121.27745819,0.163452150000012
-84.96408081,-121.34838867,0.163452150000012
-84.97106171,-121.25978851,0.163452150000012
-84.97759247,-121.25447845,0.1635742200001
-84.96022797,-121.29595184,0.163696290000189
-84.97921753,-121.25803375,0.163696290000189
-84.9588623,-121.26112366,0.16381836000005
-84.95939636,-121.27565002,0.16381836000005
-84.95263672,-121.29750824,0.1640625
-84.99977875,-121.29572296,0.1640625
-84.96336365,-121.27677155,0.1640625
-84.99339294,-121.31446838,0.1640625
-84.98729706,-121.25552368,0.164184570000089
-84.96764374,-121.25237274,0.164550780000127
-84.96563721,-121.25231171,0.164550780000127
-84.98370361,-121.25839233,0.164672850000215
-84.96833038,-121.25414276,0.164672850000215
-84.98316956,-121.25161743,0.164794920000077
-84.96179199,-121.25054932,0.164794920000077
-84.98296356,-121.25009918,0.164917000000059
-84.95410919,-121.25292206,0.165039070000148
-84.99874115,-121.26512146,0.165161140000009
-84.96955872,-121.27819061,0.165161140000009
-84.96395874,-121.26548767,0.165283210000098
-84.98757935,-121.25424194,0.165405280000186
-84.9671402,-121.25182343,0.165527350000048
-84.99475861,-121.31685638,0.165527350000048
-84.96559143,-121.27680206,0.165649420000136
-84.96383667,-121.2769928,0.165649420000136
-84.96692657,-121.2660675,0.165771490000225
-84.96952057,-121.3494873,0.165771490000225
-84.98802948,-121.2634964,0.165893560000086
-84.97376251,-121.27153778,0.166015630000174
-84.979599,-121.25321198,0.166015630000174
-84.95855713,-121.27754974,0.166137700000036
-84.96791077,-121.25106812,0.166381840000213
-84.96704865,-121.25428772,0.166381840000213
-84.97000122,-121.25614166,0.166503910000074
-84.95938873,-121.2594223,0.166503910000074
-84.96764374,-121.27261353,0.166503910000074
-84.96578979,-121.25473785,0.166625980000163
-84.96916962,-121.26635742,0.166870120000112
-84.9655838,-121.2612381,0.166870120000112
-84.96877289,-121.34893036,0.166992190000201
-84.96144104,-121.27310944,0.166992190000201
-84.96427155,-121.27845764,0.166992190000201
-84.95236969,-121.26731873,0.166992190000201
-84.99597931,-121.2882309,0.167358400000012
-84.96504974,-121.2542038,0.167358400000012
-84.9524231,-121.27355957,0.167358400000012
-84.98166656,-121.25048065,0.1674804700001
-84.97331238,-121.33389282,0.1674804700001
-84.96385193,-121.25240326,0.167602540000189
-84.95088959,-121.26648712,0.167602540000189
-84.96513367,-121.32675171,0.167602540000189
-84.96803284,-121.34838104,0.16772461000005
-84.98061371,-121.28372192,0.16772461000005
-84.972229,-121.2796936,0.167846680000139
-84.99887848,-121.32926178,0.167846680000139
-84.99604797,-121.29347229,0.16796875
-84.97276306,-121.27094269,0.16796875
-84.95379639,-121.26933289,0.16796875
-84.98815918,-121.2819519,0.168090820000089
-84.98452759,-121.25479126,0.168334960000038
-84.98210907,-121.25221252,0.168457030000127
-84.95263672,-121.25852203,0.168457030000127
-84.95223999,-121.27101135,0.168579100000215
-84.9672699,-121.26248169,0.168701170000077
-84.9594574,-121.25623322,0.168701170000077
-84.96858215,-121.26828003,0.168701170000077
-84.95440674,-121.27358246,0.168701170000077
-84.98812103,-121.25189209,0.168823250000059
-84.97086334,-121.26734924,0.168823250000059
-84.99281311,-121.28507996,0.168945320000148
-84.9818573,-121.25193024,0.169189460000098
-84.97789764,-121.28182983,0.169189460000098
-84.98770142,-121.28814697,0.169189460000098
-84.97519684,-121.28024292,0.169311530000186
-84.96838379,-121.28227234,0.169311530000186
-84.99382782,-121.292099,0.169433600000048
-84.95282745,-121.25222778,0.169433600000048
-84.95793152,-121.25357819,0.169433600000048
-84.98306274,-121.29794312,0.169433600000048
-84.96260071,-121.259552,0.169555670000136
-84.96717834,-121.2804718,0.169555670000136
-84.97138977,-121.2505722,0.169799810000086
-84.95777893,-121.26940155,0.169799810000086
-84.96562195,-121.25087738,0.170043950000036
-84.95876312,-121.26216125,0.170043950000036
-84.95021057,-121.25563049,0.170043950000036
-84.97489929,-121.28144836,0.170166020000124
-84.95107269,-121.25991058,0.170166020000124
-84.95487976,-121.27380371,0.170166020000124
-84.9626236,-121.26123047,0.170166020000124
-84.97068787,-121.28005981,0.170288090000213
-84.97203064,-121.26934052,0.170410160000074
-84.96954346,-121.27677155,0.170410160000074
-84.96704865,-121.27644348,0.170410160000074
-84.9920578,-121.28449249,0.170654300000024
-84.97206879,-121.26808167,0.170654300000024
-84.95478058,-121.26100922,0.170776370000112
-84.9506073,-121.25862122,0.170898440000201
-84.95027924,-121.25309753,0.170898440000201
-84.97044373,-121.26425934,0.171020510000062
-84.96414185,-121.27332306,0.171020510000062
-84.96581268,-121.27587128,0.171142580000151
-84.99552917,-121.29284668,0.171264650000012
-84.9766922,-121.25644684,0.1713867200001
-84.98621368,-121.28703308,0.1713867200001
-84.96041107,-121.25691986,0.1713867200001
-84.96882629,-121.26719666,0.17163086000005
-84.97631836,-121.28344727,0.171752930000139
-84.97197723,-121.27055359,0.171752930000139
-84.97691345,-121.2877121,0.171752930000139
-84.96372223,-121.27828217,0.171875
-84.95365906,-121.25669098,0.171875
-84.9885025,-121.306427,0.171875
-84.97724915,-121.26970673,0.171997070000089
-84.95128632,-121.25234985,0.171997070000089
-84.99936676,-121.25865936,0.172119140000177
-84.95259857,-121.25839233,0.172119140000177
-84.95259094,-121.32096863,0.172241210000038
-84.97672272,-121.25515747,0.172241210000038
-84.95987701,-121.25762939,0.172241210000038
-84.96138763,-121.2651825,0.172241210000038
-84.96090698,-121.25836945,0.172241210000038
-84.97084045,-121.28250122,0.172363280000127
-84.99571991,-121.25527191,0.172485350000215
-84.97830963,-121.25997162,0.172485350000215
-84.97756958,-121.28321838,0.172485350000215
-84.95149994,-121.25359344,0.172485350000215
-84.95423126,-121.26194,0.172485350000215
-84.97276306,-121.28505707,0.172485350000215
-84.95014191,-121.25679779,0.172607420000077
-84.96060944,-121.26589203,0.172729500000059
-84.97148132,-121.26999664,0.172729500000059
-84.96604156,-121.26030731,0.172851570000148
-84.99375153,-121.25418854,0.172973640000009
-84.95095062,-121.25480652,0.172973640000009
-84.97870636,-121.28623962,0.173095710000098
-84.96935272,-121.28167725,0.173095710000098
-84.97602081,-121.28439331,0.173217780000186
-84.9593811,-121.25733185,0.173217780000186
-84.97405243,-121.26780701,0.173217780000186
-84.97103119,-121.28398132,0.173217780000186
-84.98021698,-121.26249695,0.173339850000048
-84.98201752,-121.28433228,0.173339850000048
-84.96550751,-121.26101685,0.173339850000048
-84.96676636,-121.26856995,0.173339850000048
-84.97344208,-121.28681183,0.173339850000048
-84.96498108,-121.27751923,0.173461920000136
-84.97016144,-121.2796936,0.173583990000225
-84.96907043,-121.28265381,0.173583990000225
-84.9768219,-121.25137329,0.173706060000086
-84.99201965,-121.28440094,0.173706060000086
-84.96463776,-121.26473999,0.173706060000086
-84.97122192,-121.2699585,0.173706060000086
-84.95152283,-121.26030731,0.173706060000086
-84.97628784,-121.2833786,0.173950200000036
-84.97122192,-121.28546143,0.173950200000036
-84.97207642,-121.28198242,0.174072270000124
-84.9691391,-121.28014374,0.174072270000124
-84.96031189,-121.25708771,0.174072270000124
-84.97383118,-121.28204346,0.174194340000213
-84.97538757,-121.28032684,0.174316410000074
-84.98049927,-121.26122284,0.174560550000024
-84.97136688,-121.26493073,0.174560550000024
-84.97978973,-121.25968933,0.174682620000112
-84.97889709,-121.27217865,0.174682620000112
-84.9912796,-121.28383636,0.174682620000112
-84.9644165,-121.26319885,0.174682620000112
-84.95024109,-121.25298309,0.174682620000112
-84.95854187,-121.2594986,0.174804690000201
-84.99075317,-121.25328064,0.174926760000062
-84.95301056,-121.2600708,0.174926760000062
-84.98764038,-121.26442719,0.175170900000012
-84.97930145,-121.25164795,0.175170900000012
-84.97827911,-121.25988007,0.175170900000012
-84.97075653,-121.26838684,0.175170900000012
-84.97692108,-121.27108765,0.1752929700001
-84.97348785,-121.25321198,0.175415040000189
-84.98105621,-121.27471924,0.17553711000005
-84.97762299,-121.25708771,0.175659180000139
-84.99590302,-121.25641632,0.17578125
-84.95422363,-121.34716797,0.17578125
-84.98214722,-121.25596619,0.175903320000089
-84.97638702,-121.27179718,0.176147460000038
-84.96642303,-121.26296234,0.176147460000038
-84.95275879,-121.25977325,0.176147460000038
-84.98457336,-121.25853729,0.176269530000127
-84.98432159,-121.27404785,0.176269530000127
-84.97373199,-121.26895142,0.176269530000127
-84.95153046,-121.34532166,0.176269530000127
-84.99028015,-121.26747894,0.176391600000215
-84.95783234,-121.26542664,0.176391600000215
-84.96961212,-121.26480865,0.176513670000077
-84.96154785,-121.26629639,0.176513670000077
-84.96237183,-121.26081085,0.176879890000009
-84.98255157,-121.25869751,0.177001960000098
-84.9769516,-121.25402069,0.177001960000098
-84.98786163,-121.28816223,0.177001960000098
-84.98432159,-121.25824738,0.177246100000048
-84.98634338,-121.28083801,0.177246100000048
-84.96256256,-121.26580048,0.177490240000225
-84.99690247,-121.31343842,0.177490240000225
-84.99960327,-121.32067871,0.177490240000225
-84.98406982,-121.28926086,0.177734380000174
-84.98509979,-121.29445648,0.177856450000036
-84.98912048,-121.26413727,0.177978520000124
-84.98101807,-121.25137329,0.177978520000124
-84.99664307,-121.28714752,0.178100590000213
-84.98512268,-121.2797699,0.178222660000074
-84.99443054,-121.28582764,0.178222660000074
-84.95858765,-121.26464844,0.178222660000074
-84.99172974,-121.25270081,0.178344730000163
-84.98445892,-121.2532196,0.178344730000163
-84.95027924,-121.25035858,0.178344730000163
-84.9943924,-121.25553131,0.178710940000201
-84.97795105,-121.27677155,0.178710940000201
-84.9570694,-121.26483154,0.178710940000201
-84.98951721,-121.25135803,0.178833010000062
-84.98465729,-121.25470734,0.178833010000062
-84.98425293,-121.25969696,0.178833010000062
-84.99012756,-121.26338959,0.178955080000151
-84.97476196,-121.25138092,0.178955080000151
-84.98088837,-121.25508118,0.179077150000012
-84.97888947,-121.27078247,0.179077150000012
-84.97737885,-121.2712326,0.179077150000012
-84.99181366,-121.28922272,0.179077150000012
-84.993927,-121.28553009,0.1791992200001
-84.98776245,-121.2592926,0.179565430000139
-84.98423767,-121.2754364,0.179565430000139
-84.96511078,-121.26206207,0.179565430000139
-84.98378754,-121.27366638,0.1796875
-84.96369171,-121.26876068,0.179809570000089
-84.98795319,-121.26078033,0.180053710000038
-84.99743652,-121.2926178,0.180053710000038
-84.99256134,-121.31565094,0.180297850000215
-84.99278259,-121.26618195,0.180542000000059
-84.98529816,-121.28119659,0.180542000000059
-84.96034241,-121.34970856,0.180786140000009
-84.9956665,-121.2537384,0.180908210000098
-84.9981308,-121.27084351,0.181030280000186
-84.97698212,-121.27781677,0.181396490000225
-84.98139954,-121.25401306,0.181518560000086
-84.98860168,-121.28703308,0.181518560000086
-84.95690155,-121.34732056,0.181640630000174
-84.99162292,-121.27861023,0.181762700000036
-84.9907074,-121.28357697,0.181884770000124
-84.99125671,-121.31356049,0.181884770000124
-84.97325134,-121.25047302,0.182373050000024
-84.99349213,-121.29016876,0.182373050000024
-84.98081207,-121.29017639,0.182373050000024
-84.99488068,-121.26242828,0.182495120000112
-84.97789001,-121.2826767,0.182617190000201
-84.98652649,-121.25739288,0.182739260000062
-84.98548126,-121.28237915,0.182983400000012
-84.97232819,-121.27071381,0.183471680000139
-84.97622681,-121.25077057,0.18359375
-84.96206665,-121.34941864,0.183715820000089
-84.99465942,-121.26087189,0.183959960000038
-84.99445343,-121.25158691,0.184326170000077
-84.98087311,-121.25390625,0.184326170000077
-84.98338318,-121.25373077,0.184570320000148
-84.97148895,-121.27868652,0.184570320000148
-84.99987793,-121.34739685,0.184570320000148
-84.98203278,-121.29808044,0.184936530000186
-84.99533844,-121.26260376,0.185180670000136
-84.98291779,-121.25218964,0.185302740000225
-84.99542236,-121.29136658,0.185668950000036
-84.99945831,-121.26647186,0.185913090000213
-84.95735168,-121.34744263,0.185913090000213
-84.99636078,-121.26186371,0.186035160000074
-84.98193359,-121.25163269,0.186035160000074
-84.99517059,-121.25205994,0.186157230000163
-84.97044373,-121.27687836,0.186401370000112
-84.96555328,-121.25919342,0.186645510000062
-84.9826889,-121.25087738,0.186767580000151
-84.98065186,-121.25205994,0.1870117200001
-84.9617691,-121.25639343,0.1870117200001
-84.96356964,-121.26229858,0.187133790000189
-84.98496246,-121.30010223,0.187377930000139
-84.98751068,-121.25652313,0.1875
-84.97116852,-121.27770996,0.187866210000038
-84.9806366,-121.25202179,0.188232420000077
-84.98773956,-121.25649261,0.188720710000098
-84.9592514,-121.28112793,0.188964850000048
-84.99886322,-121.25283813,0.188964850000048
-84.98636627,-121.29898834,0.189575200000036
-84.97238159,-121.27609253,0.190307620000112
-84.99069977,-121.25701904,0.190795900000012
-84.9595108,-121.27998352,0.1909179700001
-84.95681,-121.25105286,0.191528320000089
-84.99224854,-121.25501251,0.192504890000009
-84.98961639,-121.2511673,0.192504890000009
-84.9881897,-121.25662231,0.192749030000186
-84.99936676,-121.32012939,0.192871100000048
-84.98290253,-121.29025269,0.193359380000174
-84.98895264,-121.25585938,0.193969730000163
-84.96668243,-121.26390839,0.194213870000112
-84.95910645,-121.25151825,0.194213870000112
-84.99593353,-121.3207016,0.194213870000112
-84.99958038,-121.25968933,0.194458010000062
-84.99504089,-121.25302887,0.194458010000062
-84.96858978,-121.25092316,0.194580080000151
-84.99830627,-121.26039124,0.194702150000012
-84.98603821,-121.25273132,0.1948242200001
-84.96806335,-121.25189972,0.1948242200001
-84.99729156,-121.260849,0.194946290000189
-84.96092987,-121.34976196,0.19506836000005
-84.96195221,-121.34903717,0.195190430000139
-84.96127319,-121.26409149,0.195800780000127
-84.95046234,-121.3481369,0.196044920000077
-84.97808075,-121.28238678,0.196044920000077
-84.96733856,-121.25032043,0.196289070000148
-84.99614716,-121.31465912,0.196533210000098
-84.97042084,-121.34951782,0.196655280000186
-84.9848175,-121.2959671,0.196655280000186
-84.95393372,-121.34898376,0.196899420000136
-84.95146942,-121.34738922,0.197143560000086
-84.99434662,-121.25016022,0.197387700000036
-84.99075317,-121.25302887,0.197875980000163
-84.96956635,-121.25034332,0.198120120000112
-84.99993896,-121.25482178,0.198242190000201
-84.95570374,-121.34773254,0.198364260000062
-84.99842834,-121.25499725,0.1987304700001
-84.99855042,-121.25125122,0.198852540000189
-84.95471954,-121.34693909,0.198852540000189
-84.99874878,-121.26051331,0.19897461000005
-84.99867249,-121.31865692,0.199096680000139
-84.95230865,-121.30464935,0.199340820000089
-84.9968338,-121.2579422,0.199340820000089
-84.99069214,-121.30249786,0.200317390000009
-84.96578217,-121.34472656,0.200683600000048
-84.98612213,-121.32006073,0.200805670000136
-84.96842957,-121.26664734,0.200927740000225
-84.96063995,-121.2539978,0.201049810000086
-85,-121.25196075,0.201660160000074
-84.99028015,-121.30198669,0.201904300000024
-84.99471283,-121.25276947,0.202148440000201
-84.97093964,-121.27037811,0.202270510000062
-84.99645996,-121.25254822,0.20288086000005
-84.99812317,-121.31767273,0.20288086000005
-84.9982605,-121.25083923,0.203613280000127
-84.99726105,-121.31936646,0.203613280000127
-84.98745728,-121.29728699,0.204345710000098
-84.96703339,-121.34313202,0.204833990000225
-84.96656036,-121.26029968,0.205566410000074
-84.95422363,-121.34388733,0.207275390000177
-84.96395111,-121.25585938,0.207519530000127
-84.97071075,-121.32070923,0.207763670000077
-84.97093201,-121.2510376,0.208618170000136
-84.96375275,-121.255867,0.208984380000174
-84.97403717,-121.27825165,0.208984380000174
-84.99675751,-121.3151474,0.209472660000074
-84.96779633,-121.26548004,0.209960940000201
-84.99340057,-121.25170898,0.210327150000012
-84.95500946,-121.34155273,0.21069336000005
-84.9713974,-121.27429962,0.2109375
-84.9865799,-121.2958374,0.212646490000225
-84.99611664,-121.25196075,0.213134770000124
-84.99630737,-121.25343323,0.214233400000012
-84.95883942,-121.25029755,0.214721680000139
-84.96618652,-121.26242065,0.215087890000177
-84.99938202,-121.32245636,0.215087890000177
-84.98246002,-121.28852844,0.215087890000177
-84.99780273,-121.25318909,0.215454100000215
-84.96881866,-121.25199127,0.215698250000059
-84.98960876,-121.30339813,0.216186530000186
-84.98536682,-121.29354095,0.216186530000186
-84.99786377,-121.32010651,0.216918950000036
-84.99729156,-121.25285339,0.217651370000112
-84.96224213,-121.25312042,0.218017580000151
-84.99752808,-121.25282288,0.21875
-84.96585083,-121.25868225,0.218872070000089
-84.99794006,-121.32015991,0.219604500000059
-84.99105072,-121.30883026,0.219726570000148
-84.9799118,-121.28764343,0.219726570000148
-84.96396637,-121.2583313,0.2221679700001
-84.98847961,-121.30467224,0.223388670000077
-84.99297333,-121.31181335,0.224365240000225
-84.9609375,-121.25637817,0.224853520000124
-84.98145294,-121.28959656,0.225585940000201
-84.97277069,-121.27562714,0.225830080000151
-84.95165253,-121.34693146,0.2265625
-84.96141052,-121.25743866,0.2265625
-84.97480774,-121.27607727,0.228271490000225
-84.95036316,-121.34731293,0.229125980000163
-84.97239685,-121.27514648,0.229125980000163
-84.96237946,-121.25579834,0.229248050000024
-84.97686768,-121.28553772,0.229614260000062
-84.95658875,-121.34747314,0.23046875
-84.97734833,-121.28634644,0.230834960000038
-84.97335815,-121.27651215,0.231079100000215
-84.96646881,-121.26217651,0.231567390000009
-84.98249054,-121.29479218,0.231811530000186
-84.96089172,-121.34500122,0.233642580000151
-84.97370148,-121.28009796,0.234741210000038
-84.99806213,-121.34397125,0.234985350000215
-84.97969055,-121.2901001,0.234985350000215
-84.98596954,-121.30288696,0.234985350000215
-84.96408844,-121.34577179,0.236206060000086
-84.97712708,-121.25055695,0.237182620000112
-84.95542145,-121.34269714,0.237548830000151
-84.97337341,-121.25067139,0.237670900000012
-84.97698212,-121.30046844,0.23828125
-84.954422,-121.34986877,0.239013670000077
-84.97527313,-121.25292969,0.239501960000098
-84.97431946,-121.29325867,0.239501960000098
-84.97071838,-121.27842712,0.239624030000186
-84.95510101,-121.34384918,0.239990240000225
-84.96993256,-121.29518127,0.240356450000036
-84.96856689,-121.28079224,0.241210940000201
-84.97928619,-121.31700134,0.241210940000201
-84.95540619,-121.25041962,0.241577150000012
-84.98580933,-121.33006287,0.241577150000012
-84.98516846,-121.25541687,0.24194336000005
-84.96058655,-121.26463318,0.2421875
-84.98610687,-121.25717926,0.242553710000038
-84.98374176,-121.25283813,0.242797850000215
-84.96600342,-121.29216003,0.243286140000009
-84.95774078,-121.27269745,0.243408210000098
-84.98136139,-121.25673676,0.243652350000048
-84.95352173,-121.25006104,0.244384770000124
-84.95664978,-121.27413177,0.244384770000124
-84.95600891,-121.26631165,0.244506840000213
-84.95800018,-121.34555054,0.244628910000074
-84.98387146,-121.25576782,0.245239260000062
-84.98706055,-121.25762177,0.245483400000012
-84.95835114,-121.34979248,0.245483400000012
-84.99073792,-121.25997925,0.2456054700001
-84.97650146,-121.25125122,0.245971680000139
-84.98660278,-121.25608063,0.246215820000089
-84.99240112,-121.26197815,0.247436530000186
-84.9796524,-121.25405121,0.247802740000225
-84.9956665,-121.34947968,0.248291020000124
-84.98605347,-121.2569809,0.248779300000024
-84.99565125,-121.26154327,0.249023440000201
-84.99336243,-121.26271057,0.249023440000201
-84.99932098,-121.26389313,0.249633790000189
-84.96279907,-121.34979248,0.24975586000005
